# .PCD v0.7 - Point Cloud Data file format
VERSION 0.7
FIELDS x y z intensity
SIZE 4 4 4 4
TYPE F F F F
COUNT 1 1 1 1
WIDTH 1278
HEIGHT 1
VIEWPOINT 0 0 0 1 0 0 0
POINTS 1278
DATA ascii
47.384087 -777.74896 992.64386 7.6765151
50.446728 -777.17072 992.93195 28
82.778641 -777.41492 992.47974 3.375
83.664993 -777.28003 992.82202 4.3333335
50.363609 -776.72375 992.73279 3.5
82.864922 -776.48822 992.6413 3
83.717094 -776.57001 992.92511 4.4444447
50.870045 -775.79468 992.5271 11.75
51.26548 -775.2796 992.39697 7.3800001
82.945686 -775.5542 992.80402 3.375
51.768204 -774.3194 992.5069 16.695454
82.982414 -774.69391 992.97101 18
83.014786 -774.63983 992.96423 18
49.899406 -773.03577 992.17023 13.166667
50.606396 -773.59009 992.48145 18.848764
51.350151 -773.87329 992.4201 25.5
53.903214 -773.0722 992.93518 11
49.522099 -772.81061 992.18097 11.583333
53.957027 -772.81763 992.95374 19
54.077473 -772.2771 992.99054 21.055555
105.13766 -772.37164 992.2038 23
48.999229 -771.0083 992.96545 1.8571428
84.157257 -771.55444 992.89941 19.857143
112.58357 -770.87628 992.05481 35
113.96191 -770.76251 992.13177 21
114.13537 -770.65088 992.31659 8.666667
128.96786 -766.14105 992.00293 2
89.999039 -764.70593 992.61121 8.333333
90.286751 -764.37885 992.5542 20.083334
90.878021 -763.68719 992.61835 20.841269
91.182289 -763.25354 992.93848 24.4
103.67131 -762.80994 992.69543 16
116.45619 -710.01733 992.01385 21
116.43269 -709.79468 992.31836 21
125.45421 -709.46936 992.61993 25
126.32321 -709.41943 992.4834 6.125
127.5095 -709.52032 992.73969 11.5
128.45888 -709.36536 992.56201 12
129.37198 -709.39246 992.77252 10.25
130.39613 -709.2088 992.6394 13.666667
131.08347 -709.21832 992.83649 6
123.60599 -708.14368 992.00964 25
125.92369 -708.49664 992.96301 16
128.93549 -708.96246 992.08295 4
130.72508 -708.98865 992.26068 3
131.62682 -708.85187 992.3999 9.5555563
132.41344 -708.6969 992.22534 23.333334
133.43286 -708.46338 992.54303 12.5
121.53493 -707.15576 992.04639 6
121.39276 -706.43256 992.31744 2.6666667
122.49623 -706.17407 992.21588 13.9
122.5555 -705.448 992.43616 14.302777
121.62684 -704.35516 992.82721 10.25
122.65876 -704.46906 992.77441 32.370373
121.55412 -703.67572 992.35809 2.75
122.59196 -703.59564 992.39044 24.285715
123.41617 -703.7146 992.63428 20.25
124.32134 -703.47217 992.44513 15.083333
125.57359 -703.37347 992.46228 13.5
126.49066 -703.47021 992.64355 11.428572
127.48191 -703.27521 992.51868 11.875
128.51814 -703.34326 992.72498 10.5
129.45285 -703.2572 992.75079 8
130.33313 -703.25964 992.85272 7
128.39929 -702.83954 992.12701 9.5
129.58101 -702.85925 992.29279 6.25
112.92516 -699.4538 992.87201 15
113.00719 -699.71973 992.22089 14
114.15479 -699.69482 992.50024 6.5
115.3239 -699.77588 992.29669 6.5
116.47395 -699.75641 992.47888 7
117.6338 -699.677 992.76276 18
135.59439 -698.15546 992.40967 41.866669
136.48428 -698.1626 992.27625 59.117676
135.35942 -697.53375 992.6037 10.8
136.58826 -697.9928 992.66724 70
135.51859 -696.61145 992.44836 7.46875
136.29144 -696.42798 992.73956 11.362857
64.800224 -695.31543 992.98151 7
65.799927 -695.57068 992.51746 10
134.90121 -695.77979 992.23267 6.6666665
135.29829 -695.56085 992.88409 12.3
136.58943 -695.76917 992.75366 8.520833
60.519188 -694.11243 992.51294 8.5
134.53198 -694.03247 992.60852 2.75
60.514164 -693.60596 992.59985 15.583333
134.61189 -693.401 992.46625 3.3888888
135.36418 -693.42987 992.37036 8.6944437
134.40002 -692.83038 992.38818 6.7053571
135.37895 -692.95306 992.07513 8.2833338
134.55128 -691.55804 992.18323 30.879364
135.19402 -691.40906 992.22485 5.4762344
60.562534 -690.32318 992.5097 23.916666
135.13879 -690.9696 992.19946 8.833333
60.659039 -689.47681 992.50293 28.952162
61.678459 -689.48022 992.40771 8.2666664
62.578899 -689.14349 992.3562 8.9833336
63.499416 -689.24615 992.51495 12.759258
64.760895 -689.34753 992.51221 8.75
60.687664 -688.93262 992.74316 17.5
61.118515 -688.97095 992.45837 9
63.582523 -688.98102 992.91724 11
88.674591 -688.89703 992.95953 24
93.918884 -688.02759 992.77411 30
94.686516 -688.27863 992.67596 13
95.301369 -688.12494 992.12866 2
88.966232 -687.30975 992.58832 8
93.879486 -687.74921 992.62628 29.666666
94.483109 -687.7973 992.52246 14.5
95.500206 -687.50275 992.63538 32.433334
96.202454 -687.05353 992.39911 27.888887
75.393417 -686.80511 992.03534 6
88.611938 -686.43854 992.48596 22.566668
95.895485 -686.92767 992.54059 45.625
96.407974 -686.6441 992.4491 19.916668
88.381554 -684.39734 992.29248 14.8
71.461044 -683.37292 992.76746 6.875
88.454407 -683.68097 992.59711 31.986113
92.550827 -683.5343 992.88916 8.25
93.225433 -683.24976 992.2168 3.3333333
96.219055 -683.80505 992.26398 3
137.60583 -683.27832 992.70374 40.828491
71.989548 -682.96356 992.49915 7
72.492821 -682.47357 992.21039 17.861111
88.459351 -682.67676 992.72217 29.166666
93.496635 -682.54425 992.66504 11.716666
94.055748 -682.38184 992.09717 18
137.55272 -682.44434 992.4469 39.949257
72.293228 -681.85132 992.0481 13
89.258224 -681.52844 992.34595 9.25
93.917389 -681.42822 992.69543 14.73
94.1716 -681.73798 992.4837 12.479167
136.78804 -681.52185 992.99628 1
137.29893 -681.47888 992.58319 28.741684
70.844666 -680.49268 992.73083 9.6000004
88.559547 -680.52802 992.23517 22.25
93.57222 -680.60132 992.46259 8.2776794
135.78151 -680.32819 992.08954 1.5198412
136.51775 -680.21643 992.3139 2.0952382
137.22559 -680.51233 992.54199 14.196503
70.975853 -679.99982 992.54395 12
71.380325 -679.5127 992.30365 9.25
88.326584 -679.84955 992.11755 31.5
89.210587 -679.13477 992.96173 9.5
92.646957 -679.46802 992.50995 3
93.111252 -679.93805 992.69208 3
136.61494 -679.90332 992.15503 3
137.20422 -679.63 992.14746 34.777779
47.100098 -678.07983 992.98743 13.4
88.708717 -678.57928 992.91052 30.15
91.630501 -678.37335 992.48651 1.25
92.144379 -678.93524 992.49304 1.5
137.0542 -678.78217 992.13416 3.0625
46.640659 -677.37054 992.83398 14.833333
47.320599 -677.36096 992.93964 20.83
54.606133 -677.11725 992.18628 7.1666665
88.496704 -677.47876 992.70764 34.083332
90.713348 -677.39026 992.34814 1.6666666
91.395187 -677.79633 992.43152 4.5333338
92.175621 -677.92627 992.34448 7
45.762207 -676.26746 992.57196 2.4000001
46.550655 -676.43726 992.70789 16.3125
47.416988 -676.52112 992.84589 19.719999
48.199833 -676.40759 992.95233 20.360001
51.899906 -676.45721 992.95422 16
52.477924 -676.55646 992.78424 17.13553
53.491722 -676.76556 992.48169 18.558609
54.373066 -676.28296 992.15106 18.533838
88.387955 -676.61157 992.53729 32.625
89.771095 -676.29688 992.43292 1
90.301163 -676.86584 992.76715 1.6277778
44.878796 -675.89246 992.85974 11.5
45.388908 -675.52258 992.52106 3.6685317
46.491829 -675.53308 992.58386 15.273809
47.469116 -675.51434 992.72864 16.328571
48.479012 -675.53479 992.89099 22.142857
49.293056 -675.22418 992.96564 20.4
51.649441 -675.64911 992.93848 15.071428
52.402756 -675.73767 992.70721 18.031517
53.395039 -675.91156 992.41577 19
54.201519 -675.01935 992.03131 14
89.517075 -675.95032 992.88654 1.8333334
45.551376 -674.65253 992.66168 15.312121
46.484848 -674.47375 992.55219 11.702645
47.544605 -674.513 992.61298 22.440477
48.488899 -674.44446 992.75146 17.166668
49.452747 -674.47101 992.89423 21.305555
51.544243 -674.67871 992.83521 15.992788
52.539806 -674.76044 992.52496 18.238888
53.548466 -674.91003 992.22644 16.541666
55.456589 -674.59955 992.46991 18.840279
88.597717 -674.52069 992.06451 9
46.50705 -673.63531 992.35242 10.6
47.555794 -673.45264 992.48987 19.875
48.609268 -673.39709 992.63458 20.833334
49.431095 -673.6059 992.7901 21.533333
50.482849 -673.49274 992.92731 28.952379
51.455132 -673.48682 992.77472 14.4
52.526508 -673.64587 992.40387 12.99697
53.349827 -673.7063 992.14313 11.950001
89.23597 -673.00421 992.95605 8
45.969807 -672.18884 992.09033 2
46.481213 -672.52832 992.21527 11.5
47.460217 -672.55963 992.36597 13.375
48.476902 -672.60742 992.51404 17.533335
49.60218 -672.55914 992.68933 28.625
50.482201 -672.36639 992.86194 14.122223
51.327934 -672.31006 992.78967 15.610001
52.405426 -672.22559 992.26221 13.084126
53.004105 -672.24731 992.07202 12
88.652328 -672.43658 992.89441 32.875
91.197037 -672.13971 992.62695 9
45.583527 -671.72931 992.13721 7.6666665
46.564812 -671.46008 992.0965 8.1999998
47.508221 -671.62793 992.24878 14.75
48.443245 -671.41052 992.36115 16.5
49.489449 -671.57343 992.55536 29
50.549011 -671.53772 992.71777 16.535715
51.552757 -671.40582 992.85309 9.875
52.225231 -671.40729 992.94531 11
88.485489 -671.44501 992.7146 31.75
45.600941 -670.37439 992.43646 19.555555
46.336548 -670.21649 992.30927 25.5
47.531048 -670.48517 992.0993 13.333333
48.578369 -670.54504 992.27167 15.6
49.574432 -670.58148 992.66235 18.796297
50.42672 -670.54395 992.59204 13.472223
51.485661 -670.42987 992.48749 11.095238
52.215729 -670.50714 992.60242 12.269841
56.708187 -670.16858 992.67841 39.642857
45.843658 -669.64563 992.15869 13
46.55571 -669.80786 992.41992 10.333333
47.775108 -669.7915 992.04016 10
48.388737 -669.40289 992.08856 16.833334
49.645077 -669.55792 992.30902 15.5
50.584042 -669.44678 992.45386 11.777778
51.320362 -669.35126 992.54224 12.5
52.093506 -669.42438 992.65015 10.833333
56.600605 -669.51343 992.54919 7.2333336
48.902012 -668.49207 992.27161 21.125
49.4664 -668.44818 992.4212 13.666667
50.43449 -668.25787 992.32178 12.833333
51.409092 -668.22552 992.34503 12.571428
52.031693 -668.68506 992.55267 11.5
56.591614 -668.8678 992.00568 4
46.110172 -667.71643 992.63947 15.666667
49.515648 -667.72278 992.05658 12.666667
50.291157 -667.58099 992.16669 13.333333
51.532345 -667.47931 992.31982 9.833333
46.02914 -666.0285 992.88654 17.5
50.457718 -666.64716 992.04913 11.333333
51.476887 -666.72815 992.2005 10.25
46.486237 -665.65076 992.56445 46.724998
47.2925 -665.72937 992.5144 59
48.445786 -665.1853 992.62769 7.1999998
49.334126 -665.0802 992.32446 11.333333
51.815384 -665.53729 992.10455 12.333333
49.591282 -664.33502 992.64056 36.25
50.10527 -664.9563 992.05029 8
51.753796 -664.76093 992.00305 13.5
47.833553 -663.79279 992.30383 49.5
48.585987 -663.84924 992.63885 53.720001
49.360302 -663.6546 992.42444 42.358334
46.873444 -662.14771 992.67261 8
47.822254 -662.60742 992.66132 9.666667
48.342091 -662.67212 992.55627 36.583332
49.848129 -662.31757 992.11035 29.375
55.294216 -662.21118 992.16345 9
58.658642 -662.34662 992.16876 29.5
46.931396 -661.71826 992.46246 17
47.350922 -661.44098 992.35284 63.833332
48.916348 -661.55731 992.84485 100
49.467712 -661.64282 992.33887 55.5
50.500298 -661.51062 992.56238 69.199997
51.354572 -661.29382 992.51837 12.444444
56.474369 -661.18933 992.50177 93.833336
57.460659 -661.43604 992.29779 44.666668
58.203629 -661.56683 992.42706 66.799995
49.839378 -660.91443 992.9942 43
50.497562 -660.61725 992.35468 28.888891
51.864075 -660.21399 992.70929 87.666664
52.47345 -660.36096 992.56396 91.400002
53.877934 -660.01172 992.09381 42
54.262417 -660.65649 992.2666 71.291664
55.462749 -660.46246 992.63855 36.166668
56.133461 -660.39172 992.45142 45
50.673752 -659.95093 992.5553 39
53.312912 -659.87274 992.22388 31
54.125023 -659.65332 992.85718 22
54.000584 -658.5686 992.70648 11
56.347664 -658.17889 992.01392 12
55.923843 -654.32019 992.56256 26.666666
56.279907 -654.09857 992.44043 21
131.81573 -654.25842 992.28784 22.5
132.95102 -654.23352 992.01294 49
134.18481 -654.09692 992.16364 44
135.38287 -654.06812 992.14569 45
134.26558 -653.67834 992.55371 29.333334
135.51572 -653.73462 992.68494 41.75
136.68793 -653.84711 992.52509 42.888885
137.90616 -653.55945 992.45892 23.166666
138.02174 -653.66125 992.9519 38
139.20938 -653.37695 992.6676 11.5
140.39906 -653.29425 992.38757 16.5
137.9541 -651.65759 992.12805 10
139.38918 -651.13818 992.44763 10
132.82013 -650.59167 992.58807 22.944445
139.39619 -650.35144 992.14709 10
115.48464 -829.42426 993.54956 23
115.50644 -828.30408 993.27802 17
116.14449 -828.24103 993.38739 18
115.1694 -827.67755 993.05994 17
116.51521 -824.55817 993.90222 20.583334
115.78171 -822.37494 993.23114 21.75
116.05533 -822.91443 993.41663 12
115.67205 -821.62555 993.03925 37
116.61072 -818.44061 993.90771 15
116.54376 -817.50702 993.70184 17.5
116.47172 -816.60919 993.50702 17.5
116.38988 -815.53436 993.28125 23.833334
116.22937 -814.5769 993.06201 30.5
116.60965 -813.83807 993.03143 31
95.255409 -807.02667 993.13556 100
95.494507 -806.96033 993.04083 10.5
50.098728 -796.00867 993.99634 4
51.648071 -796.38367 993.58514 16.641903
54.703606 -796.27173 993.73486 2.6666665
55.302109 -796.34137 993.08044 2
49.688633 -795.34155 993.73535 49.974358
50.146393 -795.45355 993.3562 35.400566
51.781334 -795.48425 993.27539 28.075001
52.263336 -795.45245 993.51306 15.071428
54.397861 -795.63837 993.38544 4.0793653
49.591347 -794.68756 993.1637 57.611126
51.080589 -794.08997 993.43396 2.6666667
52.070457 -794.82269 993.39526 7.1363635
54.199036 -794.30042 993.75055 6.25
49.725155 -793.5025 993.96735 5.083333
50.748352 -793.44464 993.42847 7.5138888
51.703106 -793.22375 993.33069 10.25
52.634335 -793.60577 993.34686 8.625
53.501926 -793.30646 993.88971 9.0999994
54.348808 -793.9928 993.80298 3
51.656693 -792.87885 993.54529 2
52.092644 -792.75476 993.77478 12
94.350403 -791.56256 993.70892 13
42.671597 -790.18256 993.93329 13
41.833817 -789.29205 993.78333 24.5
42.232609 -789.70331 993.88232 21.833332
90.776619 -789.71362 993.36963 9
41.411255 -788.80731 993.52692 20.166666
90.477188 -788.55701 993.5119 9
88.789017 -787.2998 993.08771 15
90.209229 -787.49982 993.63934 27
88.688881 -786.51636 993.16913 14.666667
88.579163 -785.69696 993.25665 14
86.995949 -784.08575 993.0047 6.5
87.448967 -784.17188 993.8252 7.75
88.348755 -784.07111 993.43494 13
88.21814 -783.7038 993.50958 12.916667
44.734993 -782.63135 993.50488 5.4145837
45.350727 -782.31293 993.47479 19.625145
45.753223 -781.91675 993.5788 19.777779
46.325871 -781.41364 993.59277 16.819841
47.311699 -781.15234 993.20776 8
46.869106 -780.91559 993.63306 13.042328
47.706463 -780.80225 993.62067 24.309525
48.381737 -780.26123 993.5285 21.513332
46.398529 -779.54907 993.42383 9.166667
47.114151 -779.24438 993.23083 11.5
48.776203 -779.87354 993.69623 24.848486
49.301826 -779.43097 993.48389 19.744999
46.679039 -778.37628 993.19794 9.3999996
47.337692 -778.52167 993.2644 7.4666667
48.113678 -778.39679 993.44043 8
49.640125 -778.66528 993.58331 17.793652
50.173798 -778.36194 993.25214 12.5
47.525707 -777.7597 993.54718 3.5333335
84.573471 -777.13245 993.15735 6
48.455673 -776.2467 993.94775 2
49.94957 -776.59448 993.55133 2.7
50.228516 -776.63593 993.5495 7
84.62529 -776.42462 993.23236 4.3333335
85.453926 -776.55945 993.55811 4.375
86.358543 -776.39581 993.89795 8.7777777
47.761391 -775.79236 993.5896 3
50.583916 -775.66248 993.59052 13.734694
51.094574 -775.14038 993.22345 15.25
83.767929 -775.40643 993.10767 4.75
84.619354 -775.29327 993.39447 5.0833335
85.416756 -775.58276 993.67896 2
86.268181 -775.73212 993.98743 9
49.897789 -774.05084 993.651 1
50.276508 -774.32257 993.84979 4.6666665
51.22261 -774.78259 993.54614 9.610714
83.608406 -774.33325 993.21313 4.3125
84.602539 -774.62592 993.495 4
85.3592 -774.57111 993.8103 2.8333333
48.704914 -773.20685 993.51733 8.0033674
49.389862 -773.52783 993.71613 8.3705177
83.299057 -773.52765 993.22748 4.9142861
84.517601 -773.56226 993.68219 1.1666666
85.302032 -773.57391 993.93683 3.7777777
48.372044 -772.65771 993.53101 8.03545
49.441097 -772.58838 993.5752 2.4333334
50.340797 -772.32556 993.49921 5
54.624527 -772.39404 993.1637 31.728571
55.297508 -772.13428 993.37787 14.333334
83.464767 -772.51111 993.50861 7.985714
84.489426 -772.56421 993.82574 3
48.150402 -771.5285 993.88373 2.6666667
49.573868 -771.04041 993.14783 1.8571429
50.13744 -771.1275 993.36072 1
54.714798 -771.60327 993.14856 19.658333
55.53064 -771.40216 993.41711 14.5
56.529812 -771.35645 993.76801 10.458333
83.488907 -771.84064 993.52332 18.007654
84.463737 -771.5387 993.65881 21.295238
105.22625 -771.64362 993.56146 48.333332
48.931385 -770.84686 993.06689 3.3333333
49.705399 -770.56091 993.19434 1.7
50.147839 -770.62213 993.32501 1.8333334
51.435894 -770.45752 993.8866 6
49.861603 -769.67847 993.26001 1
91.670883 -769.25659 993.5249 4
92.066193 -769.32336 993.4375 4
89.94931 -768.07959 993.98505 3
90.604736 -768.27502 993.3653 2.875
91.524063 -768.43524 993.62622 3
92.030991 -768.70544 993.49884 4
93.334023 -768.63489 993.93103 4.625
85.714386 -767.98303 993.58606 18
86.273506 -767.81488 993.83185 21.083332
88.862694 -767.13379 993.74744 2
89.529572 -767.5769 993.54089 2.5
90.807167 -767.55707 993.23944 5.7555556
91.908417 -767.32581 993.63696 6
93.270844 -767.98962 993.97998 6
87.618912 -766.13104 993.65631 4
88.269012 -766.73975 993.93115 2
90.761436 -766.54932 993.35187 4
91.824585 -766.44604 993.71985 5.9749999
106.79079 -766.54266 993.76685 41
86.778862 -765.60315 993.94983 6
87.180618 -765.85486 993.80957 4.5
89.494019 -765.43494 993.23248 8.1499996
90.685059 -765.44006 993.47211 4.416667
91.647926 -765.35553 993.83154 4.015873
106.48511 -765.33105 993.60968 14.666667
89.754837 -764.82556 993.22363 22.160713
90.391891 -764.37793 993.47717 19.451529
91.474831 -764.42108 993.92517 1.6964285
90.737358 -763.6618 993.48254 28.835001
91.212212 -763.4964 993.75928 18.25
102.75757 -763.39343 993.80933 49
90.255058 -762.61102 993.78436 14.25
107.24619 -762.70288 993.65411 30.020834
71.381081 -745.3302 993.87891 7.4000001
72.047394 -745.49335 993.99536 9.5
69.874542 -744.16486 993.56616 17.916666
70.797691 -744.59137 993.63702 9.9444437
126.64799 -710.20209 993.56549 6
128.33429 -710.1579 993.83289 9
131.07471 -710.17065 993.95154 10
115.30392 -709.31799 993.82104 20
119.56789 -709.36731 993.92072 17
124.12718 -709.24622 993.72998 4.5999999
125.52831 -709.26324 993.36127 69.375
127.26892 -709.38971 993.25732 15.25
128.73659 -709.59271 993.14001 10.333333
129.72313 -709.73743 993.32806 4
131.71005 -709.78503 993.62299 20.5
132.71973 -709.62848 993.85236 63
133.32147 -709.2135 993.44824 64.333328
123.89913 -708.30322 993.96448 3
124.04497 -708.90369 993.81238 3
125.43495 -708.64331 993.93152 85.875
127.00807 -708.98199 993.63373 19
133.58459 -708.29987 993.54694 48.25
121.67529 -705.04169 993.04688 18.5
122.30155 -705.133 993.21161 16.5
121.64555 -704.90405 993.18384 21.333334
122.45779 -704.44812 993.19562 22.34
123.5536 -704.336 993.38702 27.285715
124.52161 -704.4892 993.67596 14.8
125.50091 -704.3963 993.66864 12.666667
126.51107 -704.40814 993.78125 11.25
127.50214 -704.19086 993.61688 10.333333
128.42087 -704.17322 993.72266 8.5
129.64357 -704.13171 993.81696 8
124.63066 -703.93542 993.0354 15.5
125.67107 -703.9975 993.24207 10
126.31321 -703.95209 993.20703 10
127.34213 -703.88666 993.23059 11.5
128.39499 -703.77063 993.23224 8
129.46025 -703.72882 993.31757 6
130.39149 -703.76788 993.45538 6.5
131.24297 -703.94116 993.74731 4
112.86047 -699.25726 993.42578 16
114.0743 -699.34497 993.5448 7
115.28262 -699.43652 993.32007 7
116.46758 -699.38123 993.56726 7.5
117.65742 -699.5896 993.26208 7
61.27261 -698.17987 993.9292 5.4166665
61.145977 -697.76251 993.7959 10
135.78862 -696.54156 993.47955 6.1722221
136.21677 -696.39392 993.50867 6.8714285
63.921352 -695.00702 993.37042 6
64.43615 -695.12756 993.42352 5.5999999
65.425125 -695.35883 993.43768 4.4000001
66.093636 -695.41821 993.64911 7.6666665
135.4771 -695.67761 993.16125 9
136.44009 -695.52313 993.37518 6.8303571
62.919033 -694.68182 993.81555 2
63.399624 -694.83173 993.60132 5
64.251984 -694.96716 993.91229 4
88.164505 -694.354 993.94818 12
135.96848 -694.966 993.78229 16
136.81805 -694.03796 993.84424 6.8000002
60.410435 -693.7229 993.59271 13.666667
87.850685 -693.33356 993.88794 49
89.067345 -693.52124 993.61426 18.199999
136.67807 -693.11212 993.67682 5.2952385
88.850998 -691.30469 993.33807 22.75
89.075264 -691.45526 993.30878 7
60.444153 -690.38007 993.56946 43.84
88.738602 -690.51007 993.23224 24.466667
89.217865 -690.1944 993.98224 33.333332
60.601238 -689.4718 993.55408 12.944445
61.257622 -689.76624 993.24451 2
63.533195 -689.22351 993.11591 15.475
64.432907 -689.84857 993.05157 4
88.600479 -689.56531 993.09882 21.799999
89.147728 -689.58472 993.89966 31.3125
60.614807 -688.79932 993.60516 16.133333
61.094376 -688.87573 993.04248 6
63.343792 -688.25586 993.81683 4
88.957191 -688.83508 993.81427 27.75
89.564209 -688.06726 993.56732 7.1999998
94.368805 -688.07446 993.20087 10.166666
95.218407 -688.37231 993.27759 22.857141
89.248108 -687.44873 993.51965 36
93.689766 -687.69043 993.25629 21.4
94.202591 -687.90863 993.57605 11.833334
95.744331 -687.75098 993.08875 49.770832
96.434166 -687.56207 993.21051 41.468254
97.297676 -687.18854 993.25745 25
89.327156 -686.56488 993.34558 7
88.958786 -685.07343 993.12909 21.5
89.25412 -685.52423 993.16376 9.666667
92.066093 -685.57141 993.73035 5
101.19244 -685.91479 993.63318 9
70.210114 -684.22943 993.36505 4
88.702713 -684.61639 993.08307 36.5
89.27726 -684.30786 993.93719 40.333332
92.508331 -684.03809 993.70795 9
137.6149 -684.38525 993.66974 48.945011
70.749893 -683.93359 993.13214 6.5
71.000854 -683.83386 993.03699 9
89.219276 -683.7793 993.85095 37.5
92.601097 -683.54913 993.52386 14.704545
93.220695 -683.2243 993.5459 10.455556
137.49539 -683.4187 993.43103 33.364246
67.747528 -682.24548 993.9422 5
68.037582 -682.1048 993.83606 5
89.241577 -682.45312 993.60376 6
93.639008 -682.47272 993.28296 12.986448
94.912498 -682.19226 993.19788 9.25
95.116333 -682.43945 993.04675 7
137.29781 -682.49902 993.43878 22.592861
49.705128 -681.29651 993.82947 30.429234
50.417133 -681.38879 993.94672 37.397915
68.399261 -681.86829 993.68365 5
89.142761 -681.36499 993.41016 22.75
94.46283 -681.57172 993.43439 7.2405758
136.93765 -681.48969 993.24677 11.868873
137.13533 -681.66638 993.51587 3
48.893139 -680.17993 993.55634 22.907051
49.430977 -680.4856 993.67889 23.558331
50.475254 -680.50952 993.84015 31.13035
51.344597 -680.37799 993.95129 35.072826
54.630516 -680.18652 993.97003 15.5
89.116989 -680.84485 993.31268 18
93.615891 -680.34961 993.4801 2.8399999
94.096375 -680.90161 993.44049 3.5999999
47.993309 -679.203 993.27521 15.6
48.525848 -679.50812 993.40723 17.783163
49.520515 -679.52856 993.55804 25.860332
50.576435 -679.42657 993.71118 26.891203
51.616173 -679.48975 993.87567 36.488583
52.378376 -679.44647 993.97504 29.366667
54.489372 -679.34259 993.78448 6.8772726
89.236382 -679.40515 993.0127 6
92.675186 -679.30511 993.47455 3.25
93.096687 -679.7442 993.43097 5
47.623783 -678.36316 993.10547 16.537699
48.527977 -678.53333 993.26971 20.128195
49.519062 -678.46002 993.42242 21.457935
50.46825 -678.547 993.58051 27.861263
51.482288 -678.46698 993.72668 28.887554
52.558327 -678.49994 993.87872 26.28738
54.502544 -678.64014 993.56067 2.3605442
89.267151 -678.31366 993.93311 29
91.783264 -678.38348 993.34125 1.6666666
92.154449 -678.72485 993.65411 2
45.40416 -677.18738 993.76721 13.964286
47.774334 -677.63171 993.04065 20.509525
48.620598 -677.41187 993.14294 23.336309
49.513996 -677.59723 993.31262 20.62738
50.487896 -677.49561 993.4483 28.260185
51.493252 -677.48462 993.59619 26.609821
52.481815 -677.46277 993.7373 22.875664
89.209885 -677.80127 993.84717 26.833332
90.785645 -677.26569 993.5542 1.3333334
91.221237 -677.75757 993.44727 1.0625
45.371735 -676.44025 993.61731 14.954544
48.748035 -676.50903 993.05249 22.625
49.544277 -676.44037 993.33679 17.624622
50.531734 -676.47076 993.33032 21.558332
51.468872 -676.4906 993.38708 19.414761
52.436058 -676.49237 993.60944 22.510204
89.55056 -676.216 993.53632 4.5357146
90.238998 -676.58875 993.53259 2.6145453
45.453766 -675.55621 993.52856 19.194445
48.634857 -675.65948 993.90625 20.267677
49.5867 -675.60547 993.36926 19.857143
50.516304 -675.47351 993.19641 23.42749
51.36842 -675.48547 993.25891 17.694445
52.387718 -675.51715 993.47723 20.047619
57.679321 -675.01526 993.92816 35.333332
88.902626 -675.12939 993.82532 3.0549021
89.177193 -675.52832 993.37921 5.8589745
42.99485 -674.35797 993.80011 4
45.592197 -674.57635 993.62903 19.186148
46.107941 -674.38879 993.46222 11.765151
48.495453 -674.74896 993.82745 21.055737
49.642376 -674.67133 993.35809 18.553572
50.596447 -674.5661 993.09924 26.168333
51.632275 -674.40186 993.22571 18.23
52.409615 -674.59045 993.36121 16.266666
55.682945 -674.47607 993.33044 21.473612
56.073719 -674.60175 993.73419 17.416666
57.306141 -674.63666 993.91858 19.200001
89.116585 -674.81744 993.30853 24
47.797871 -673.77722 993.94617 16.299999
48.389217 -673.71326 993.74884 14.941667
49.441788 -673.62781 993.39813 16.113249
50.409351 -673.63635 993.08972 14.666667
51.41716 -673.62134 993.10364 16.612499
52.410187 -673.49969 993.22943 15.645833
55.800602 -673.90411 993.6767 2
57.411686 -673.2276 993.52533 5
45.699432 -672.43518 993.33331 25.039999
47.493656 -672.43353 993.86523 15.07619
48.408432 -672.31232 993.54822 17.381945
49.481396 -672.23346 993.19336 15.475
51.724358 -672.75781 993.04565 16.65
52.322056 -672.52759 993.09747 15.666667
57.692822 -672.71307 993.51953 13.557142
58.471344 -672.89667 993.17859 5
45.716511 -671.32654 993.35809 16.25
52.273102 -671.99127 993.02612 15
41.143806 -670.13971 993.41406 2
45.507893 -670.4455 993.85059 10.888889
47.46756 -670.77393 993.67981 6.3000002
48.505241 -670.61456 993.30957 11.776768
49.191277 -670.55267 993.07922 12.5
56.860268 -670.07581 993.42914 36.57143
57.220325 -670.10724 993.63062 52.125
40.459221 -669.65698 993.64441 4
41.423714 -669.34082 993.48798 5.4444447
42.120117 -669.96301 993.31433 2
44.442307 -669.68268 993.60419 3
45.794064 -669.77203 993.45898 20.222221
46.415794 -669.70386 993.44012 19.119999
56.864563 -669.51331 993.49615 15.708333
57.262985 -669.54248 993.79718 39.166668
39.831959 -668.85535 993.54852 4.666667
40.67643 -668.914 993.59631 5
47.433331 -668.48572 993.62921 11.48379
48.334148 -668.29694 993.25873 17.083334
57.068005 -668.875 993.71899 19
38.539337 -667.85687 993.89899 2
39.761391 -667.703 993.77173 4
45.859455 -667.06635 993.53912 13
46.453949 -667.8728 993.46051 24
47.622986 -667.71375 993.69452 13
48.33992 -667.93433 993.54803 3
45.883953 -666.73395 993.36017 14.388889
45.803162 -665.61572 993.96436 65.599998
46.464565 -665.53339 993.46564 68.514282
47.197193 -665.50391 993.5376 36.5
48.533901 -664.50287 993.68329 13.625
49.753693 -664.11865 993.40277 47.444443
48.64822 -663.94257 993.44318 23.333334
49.566658 -663.99866 993.43024 20.666668
50.203403 -663.87286 993.95441 7
55.135658 -663.03015 993.94244 25.25
47.996006 -662.55341 993.99097 86.333336
48.26297 -662.46027 993.70428 14.888888
54.897598 -662.81738 993.97412 13
56.575397 -662.94073 993.57422 22.888887
58.434242 -662.65375 993.50763 19.725
59.115875 -662.80701 993.38171 20
77.858124 -662.57886 993.96637 5
46.740425 -661.45081 993.77246 32.599998
47.293438 -661.37494 993.19727 79.099998
48.576141 -661.48199 993.15515 92.4375
49.206703 -661.46997 993.70807 81.625
51.523556 -661.21448 993.4353 40.5625
53.565361 -661.56982 993.33643 10
54.631939 -661.89301 993.10358 24.5
56.664547 -661.06433 993.29254 35
57.629993 -661.54462 993.63049 39.700001
58.092319 -661.42389 993.00385 33.75
76.533836 -661.2749 993.99286 12
49.584259 -660.86725 993.22681 43.625
50.290421 -660.20569 993.46381 9.666667
52.529427 -660.21643 993.3963 33.720001
53.440571 -660.4129 993.46283 29.333334
54.178741 -660.57849 993.43091 46
55.816036 -660.85565 993.47479 68.5
56.215511 -660.59778 993.33954 53.333336
50.539913 -659.72083 993.35461 60.400002
51.23333 -659.89612 993.71521 72
53.604305 -659.56537 993.5835 23.833334
54.73082 -659.6015 993.58411 12
55.403282 -659.79333 993.43536 18
134.37401 -653.34192 993.04645 23
135.6595 -653.2182 993.27692 20.333334
136.88829 -653.41925 993.28021 24.333334
138.10493 -653.52728 993.2511 38
139.41066 -653.38599 993.47876 39.75
140.67485 -653.32172 993.49567 35.666668
116.20691 -827.38428 994.51251 22.333334
115.99668 -826.84735 994.33057 13
117.73654 -826.95654 994.76349 14
116.45924 -825.58563 994.13239 26
117.23027 -821.40332 994.70581 15
117.21534 -820.62616 994.53174 16.333334
116.67641 -819.17249 994.07617 15
117.52536 -819.77344 994.43341 16
51.291859 -797.25543 994.5896 20.208334
49.775036 -796.29156 994.65265 43.385731
51.719494 -796.66168 994.63702 22.979166
52.060505 -796.23322 994.65741 20.5
53.722733 -796.22626 994.80603 8.75
54.411514 -796.24927 994.05316 10
48.999252 -795.80969 994.91528 18
49.643097 -795.61682 994.07166 43.6875
52.201443 -795.8952 994.30591 21
53.329735 -795.5069 994.62323 10.35
48.069523 -794.55859 994.5799 39
52.617538 -794.34973 994.68036 8.6937504
53.225208 -794.60254 994.62213 14.256909
49.711922 -793.31659 994.5957 7.6433859
50.024727 -793.37726 994.55103 8
52.889191 -793.71149 994.10254 7.875
53.423462 -793.47272 994.47491 11.509781
54.47752 -793.55737 994.4798 4.2799997
50.2789 -792.91675 994.14502 2
52.416882 -792.32043 994.56915 5.166667
53.48468 -792.41132 994.42261 9.729166
54.533112 -792.63739 994.64911 10.716667
43.5965 -791.19354 994.89655 22
52.43874 -791.66406 994.69238 6.2388883
53.429821 -791.77612 994.85516 9.8055563
94.374306 -791.1424 994.17609 12.583333
42.722252 -790.25916 994.47772 18.210001
43.158302 -790.71515 994.55341 29.9
93.579636 -790.65979 994.19006 20.666668
94.076965 -790.68457 994.85394 16.799999
41.997158 -789.4801 994.27844 24
42.297977 -789.80585 994.28564 30.198412
88.414734 -788.13043 994.37701 8
88.314682 -787.55798 994.4281 8
89.816154 -787.7428 994.96692 22.666666
88.134186 -786.55627 994.51965 12
87.971123 -785.50793 994.60449 11
88.049088 -785.98639 994.56439 8
87.800842 -784.46411 994.6911 12
88.000168 -784.08655 994.61328 7
89.24585 -784.81396 994.08105 47
88.505005 -783.83081 994.40564 7
44.651371 -782.49469 994.48993 4.563889
45.223309 -782.11755 994.20398 14.571428
88.132088 -782.23987 994.58374 37.083336
45.64732 -781.55713 994.62848 25.337084
46.273926 -781.14624 994.29333 20.061687
46.652954 -780.71814 994.56891 13.729828
47.284592 -780.09094 994.77063 10.944445
48.398071 -780.05469 994.02258 21.5
45.879105 -779.34045 994.14337 6.5
46.384335 -779.42706 994.34631 7.8846149
47.514526 -779.42859 994.71631 13.68
48.412994 -779.40826 994.6001 23.333334
46.433926 -778.53796 994.17444 7.0754023
47.471786 -778.37146 994.34961 8.6410255
48.634541 -778.75958 994.73663 5.5333338
49.310684 -778.57788 994.44 18.202824
46.854279 -777.75653 994.10675 4.75
47.416901 -777.87189 994.2027 6.4452381
47.526562 -776.34186 994.40527 3.4935067
48.218071 -776.41364 994.56116 4.1666665
49.863258 -776.63287 994.35205 6.0450001
47.551331 -775.88348 994.35254 3.25
50.38269 -775.49841 994.4834 17.983706
49.929417 -774.1795 994.35443 12.828571
50.562462 -774.57129 994.49005 12.375024
51.260181 -774.17633 994.68799 10.722222
85.435394 -774.2439 994.49072 27.25
48.079277 -773.1311 994.73596 8
49.623577 -773.45929 994.315 15.007441
50.239677 -773.67328 994.39172 19.964285
85.756012 -773.98792 994.35205 42.200001
47.78981 -772.67694 994.36237 2.777956
48.222599 -772.25195 994.6626 3.3333333
49.510147 -772.92383 994.27362 2.1666665
85.200478 -772.82764 994.05945 9.125
47.612282 -771.74683 994.47296 4.6400003
48.002522 -771.33624 994.27197 5.5
50.735802 -771.40564 994.84631 3
84.620033 -771.39819 994.34558 16.616072
51.158024 -770.79175 994.2547 6.8333335
84.388809 -770.52112 994.12439 15.6
83.694839 -769.36139 994.64581 2
86.748619 -767.68689 994.24792 29.846668
87.427536 -767.49133 994.57892 22.936666
88.519257 -767.20734 994.55664 19.674999
89.454254 -767.74042 994.11737 3
93.169388 -767.36194 994.0329 6
94.423592 -767.37158 994.49878 8
106.9633 -767.08588 994.94788 6
87.497887 -766.32812 994.40399 4.3333335
88.216232 -766.90057 994.44733 3
92.853844 -766.28552 994.14661 2
93.083687 -766.73792 994.08099 6
94.25322 -766.52972 994.55054 3.9166665
106.93796 -766.36517 994.06067 48
107.10965 -766.17334 994.37793 41
85.863899 -765.08966 994.47046 8.75
86.509041 -765.56946 994.41522 7.4285712
89.8825 -765.11603 994.45612 31
92.778152 -765.37341 994.32532 7.6400003
93.006836 -765.21667 994.78656 21
83.882347 -764.00061 994.92456 1.5
84.746162 -764.4837 994.76031 8.5462961
85.370338 -764.77783 994.68036 11
92.505875 -764.4989 994.28906 13.5
93.133293 -764.8576 994.77448 25.5
103.06131 -764.21875 994.8457 24
90.821831 -763.33185 994.50946 26.428572
91.189621 -763.3255 994.04541 19.833332
102.95149 -763.18091 994.15906 47
107.44835 -763.50146 994.4895 39.099998
89.383217 -762.48114 994.97418 13.666667
91.075897 -762.83441 994.09332 14.333333
102.42126 -762.75037 994.69263 16
107.38689 -762.27173 994.27441 24
88.662407 -761.56311 994.58221 14.967461
89.042412 -761.89172 994.14874 5
91.498055 -757.20807 994.5285 18.855
91.836266 -756.53009 994.86603 19.222221
92.17688 -756.06384 994.79352 24
92.387177 -755.77808 994.74713 21.25
68.818733 -753.07269 994.96674 2
67.789536 -751.82941 994.56689 1
65.841759 -750.76202 994.98169 2.4444444
66.215553 -750.41272 994.39081 3.1411209
67.894218 -750.21338 994.78033 3
68.40921 -750.89331 994.96716 3
66.701569 -749.83087 994.02826 3.0555556
67.19313 -749.48108 994.5531 6.5
68.065552 -749.77979 994.74414 2
67.204346 -748.76807 994.94147 8
72.51297 -747.24194 994.88965 13.875
71.623177 -746.60828 994.6701 2.1666665
72.188812 -746.67743 994.59155 12
70.677452 -745.58868 994.61975 13.1875
71.530815 -745.39557 994.7171 10.633333
69.896996 -744.2757 994.30054 11.75
70.3909 -744.66864 994.69171 15.305556
88.800934 -731.44916 994.37671 4.3833332
89.109673 -731.0871 994.25275 6.3333335
88.965111 -730.99011 994.71399 4
89.22818 -730.56024 994.82898 3
89.813019 -729.93237 994.55054 2
127.05955 -710.87048 994.39008 6
128.51311 -710.23029 994.37183 8.875
129.3373 -710.00116 994.50891 5
130.27164 -710.34332 994.10364 5
131.6582 -710.73529 994.75214 26
132.46626 -710.39465 994.67053 25.25
114.16156 -709.10657 994.42542 20.666666
124.55651 -709.2226 994.26721 36.650002
129.54631 -709.53479 994.68866 10.1
131.95062 -709.60345 994.44824 67.75
132.64551 -709.24823 994.17365 75.033333
123.94049 -708.42743 994.0213 3
124.66631 -708.61597 994.7135 58.933331
125.37059 -708.23737 994.30029 74
129.92117 -708.95538 994.97461 7.3333335
130.5201 -708.46796 994.73755 11
132.54778 -708.63232 994.73175 100
133.25009 -708.33203 994.39795 64.541664
125.28625 -707.71771 994.77454 79.1875
131.44141 -707.40955 994.87213 9.708333
133.65776 -707.68231 994.58887 96.198418
131.71626 -706.97052 994.94513 8
132.32639 -706.28497 994.97571 8
123.65233 -705.08673 994.24933 16
124.46835 -705.33032 994.66595 15
125.38322 -705.26886 994.69476 11.333333
126.56135 -705.16669 994.73987 9.5
127.32195 -705.15833 994.77063 11.5
128.55727 -705.15222 994.90381 8
132.91367 -705.6676 994.86847 8
124.58392 -704.922 994.19653 17
125.59187 -704.87024 994.22595 12
127.52289 -704.77148 994.33453 10.666667
128.52184 -704.69012 994.33813 9.666667
129.53789 -704.63086 994.39233 8.75
130.51639 -704.57556 994.42365 17.200001
131.43414 -704.47028 994.36707 13.625
132.47914 -704.93298 994.88953 11
61.837711 -699.07538 994.95905 3
114.01009 -699.06616 994.37054 7
115.24741 -699.14966 994.15717 7
116.46555 -699.06213 994.59406 12.5
117.67984 -699.02063 994.4765 8
61.341133 -698.52789 994.5191 3.761905
115.22289 -698.95062 994.73938 8
135.66515 -697.31671 994.46985 21.5
136.53139 -697.20312 994.52692 42.386364
137.28923 -697.29578 994.55383 50.41909
137.11755 -696.98553 994.99103 77.272728
64.865234 -695.04193 994.36456 4
65.462425 -695.16315 994.49957 4
66.258965 -695.27887 994.57153 10
86.461632 -695.4295 994.5072 5.25
136.47528 -695.18298 994.11761 21.794643
137.23047 -695.05457 994.50934 13.5
62.566536 -694.40076 994.58612 3.3
63.525471 -694.6601 994.52533 5.9166665
64.279648 -694.84924 994.57715 4.666667
87.663422 -694.50037 994.48975 7.25
88.09848 -694.01221 994.74286 5
135.95551 -694.83972 994.15393 21.5
136.69569 -694.77582 994.47693 20.03125
137.24844 -694.71613 994.69775 17.055555
61.678917 -693.99835 994.91681 2.5
87.654312 -693.27795 994.7439 10.25
88.219528 -693.68127 994.67651 13
89.452225 -693.06537 994.33899 25
136.67792 -693.94348 994.19635 1
89.451675 -692.24377 994.23157 22.666668
89.556618 -691.40961 994.48096 35.009525
60.338238 -690.47522 994.48114 33.420002
89.519287 -690.61194 994.44128 31.5
90.112434 -690.22546 994.73633 16
58.920364 -689.5415 994.85663 7.7777781
59.569412 -689.40393 994.62256 3.9791665
60.516113 -689.52844 994.49866 16.417833
61.501007 -689.47235 994.48242 2
89.735466 -689.03418 994.63129 19.5
90.237701 -689.48578 994.61273 9.166667
60.510548 -688.79584 994.5329 21.747618
61.639679 -688.5451 994.59454 17.265871
63.074745 -688.58105 994.57318 1
89.577835 -688.47351 994.57373 34
93.76918 -688.43158 994.94098 9.5
97.157074 -688.09381 994.43994 7
61.974327 -687.66754 994.72058 28.75
62.050472 -687.89099 994.27039 6
63.25148 -687.86682 994.27551 1
89.688095 -687.49219 994.40656 14.75
97.120529 -687.83374 994.41461 11
52.464039 -686.41687 994.9043 30.878555
53.160488 -686.19745 994.95068 23.003103
62.3447 -686.68256 994.66766 20.434525
89.780952 -686.22858 994.18994 14.444446
92.84993 -686.09961 994.65283 15.125
93.036987 -686.33508 994.22577 10
51.881439 -685.32648 994.6792 50.2761
52.57325 -685.4895 994.77844 49.380398
53.488377 -685.42914 994.89032 24.227507
62.613186 -685.78632 994.81787 26.450001
63.005917 -685.65106 994.64496 3
65.873756 -685.81812 994.97095 3
66.440514 -685.6347 994.76886 3.6666667
67.45874 -685.28845 994.40027 4
68.131905 -685.06543 994.15906 4
89.410851 -685.60059 994.14136 38.799999
137.56448 -685.5058 994.56616 18.563681
51.694576 -684.45312 994.52356 52.507847
52.535145 -684.49207 994.6344 49.484684
53.472168 -684.53046 994.76831 29.764933
68.519867 -684.95306 994.02563 4
89.715248 -684.83026 994.63617 33.5
90.363953 -684.13379 994.7843 6
137.4805 -684.67938 994.37805 16.055695
50.819771 -683.23486 994.23993 50.427273
51.438583 -683.44733 994.35815 52.936653
52.479439 -683.53186 994.50122 50.716309
53.514515 -683.49768 994.64636 25.904379
90.266571 -683.54028 994.70386 7
137.39323 -683.91205 994.2442 4.4074073
50.568134 -682.52814 994.11713 46.671814
51.530766 -682.51813 994.24762 48.916019
52.468292 -682.55359 994.3728 48.93256
53.543381 -682.54706 994.52759 26.512375
66.940186 -682.69708 994.25818 5
67.317802 -682.49066 994.11194 5
89.90519 -682.36139 994.55713 39
90.22554 -682.9812 994.62061 7
50.708874 -681.69891 994.0293 40.669395
51.482525 -681.5531 994.12 40.607395
52.540691 -681.49066 994.2533 42.626579
53.353512 -681.58179 994.37103 41.907475
89.824234 -681.55365 994.43347 6
51.652546 -680.76062 994.04315 39.76889
52.497883 -680.43976 994.11609 37.011147
53.246441 -680.62292 994.23596 34.186722
54.672626 -680.04907 994.18262 11.403572
89.669464 -680.48157 994.26984 14.125
52.770985 -679.67236 994.05707 35.506699
53.0737 -679.34338 994.05688 23.616667
54.649704 -679.56128 994.50055 10.51414
55.066498 -679.73352 994.875 16
66.663132 -679.84448 994.00452 5
89.459778 -679.66827 994.15155 33.433334
92.754715 -679.17462 994.65393 1.5
93.146843 -679.63409 994.49438 2.3333333
45.68269 -678.47095 994.89008 4
54.827763 -678.64087 994.6051 7.8283062
89.311638 -678.7782 994.01111 35
91.745956 -678.17145 994.37476 2
92.257515 -678.69263 994.43085 2.5
44.944248 -677.10565 994.70288 4.5
45.291553 -677.2948 994.58258 16.25
90.672195 -677.19128 994.65076 5.2200003
91.252739 -677.64575 994.37427 1.5703703
41.790768 -676.03992 994.95483 7.5
42.678776 -676.19952 994.93872 8.166667
43.262646 -676.35681 994.95221 5.5
44.736095 -676.43732 994.63043 2.5833333
45.214294 -676.59583 994.41309 18.283335
46.565334 -676.61371 994.76965 10.045004
47.550797 -676.56934 994.35742 15.798611
48.283081 -676.43811 994.10254 15.492063
62.501431 -676.5545 994.80194 2
89.903099 -676.15088 994.46393 1.5882353
90.250488 -676.6452 994.6355 13.50069
40.710739 -675.8382 994.96265 6.083333
41.212173 -675.93872 994.96338 7
43.74696 -675.23761 994.4231 1.611111
44.583305 -675.42255 994.50262 3.3333335
45.334194 -675.39526 994.49768 11.56728
46.593521 -675.32715 994.52887 13.636539
47.487213 -675.8349 994.30078 22.703081
48.062912 -675.72821 994.09845 20.5
62.905014 -675.87714 994.5979 2
63.169178 -675.42657 994.46387 2
89.482773 -675.51923 994.47229 4.1970587
43.495331 -674.17694 994.28259 2.25
44.638351 -674.40186 994.59967 6.8874998
45.61858 -674.39844 994.51416 21.837473
46.147465 -674.11554 994.44678 7.0972228
47.451622 -674.89343 994.18359 21.637238
55.900448 -674.27539 994.24121 20.548611
56.386311 -674.51831 994.81183 36.413582
57.304649 -674.54785 994.44586 27.523808
63.709911 -674.56866 994.20587 2
64.064926 -674.00281 994.03699 2
88.542397 -674.62769 994.55658 6.338304
89.804131 -674.4967 994.43262 8
90.860771 -674.96136 994.43604 8
36.832375 -673.23517 994.03394 6
43.479733 -673.80786 994.3476 1
45.822475 -673.77344 994.75568 17.625
46.401577 -673.70825 994.4353 4.6076922
47.416069 -673.82178 994.07184 20.73077
55.999588 -673.95892 994.48694 5
56.119511 -673.90167 994.86066 6
57.43634 -673.5816 994.07245 14.333333
87.843613 -673.80054 994.87823 5.244318
89.526642 -673.50427 994.29175 34.375
42.658989 -672.77264 994.23627 1
44.627338 -672.49976 994.32037 14.292064
45.356918 -672.30438 994.25317 12.400001
46.553185 -672.61426 994.58856 16.102938
47.346733 -672.53131 994.52008 10.75
89.415993 -672.34082 994.11017 32.833336
45.25198 -671.45203 994.5011 4.2083335
45.406353 -670.16327 994.49072 19.479166
47.38847 -670.84827 994.77875 20
56.707787 -670.21448 994.58539 19.333334
41.118217 -669.10687 994.60553 3
44.655289 -669.5752 994.43054 6.25
45.640553 -669.66461 994.69244 27.6
46.309124 -669.7229 994.36548 25.611109
47.494316 -669.60962 994.75952 19.533333
56.822395 -669.37854 994.7218 16.25
57.368431 -669.94983 994.62823 51.359997
46.904099 -668.11121 994.04126 17.5
47.673981 -668.58044 994.35492 22.277777
48.297867 -668.09698 994.52423 29.40625
56.881836 -668.80511 994.53326 8.666667
57.041367 -668.53516 994.8573 9
82.751137 -668.00415 994.96228 5.4000001
39.668381 -667.9599 994.06213 7
46.575134 -667.68549 994.0036 10
48.425228 -667.80719 994.51068 7.1666665
81.964859 -667.12885 994.81482 5
82.26149 -667.45953 994.87268 5
45.559364 -666.10089 994.41248 13.5
81.435608 -666.53625 994.70178 4.4000001
87.464798 -666.75665 994.67609 12
45.615959 -665.45752 994.3501 23.6
46.589245 -665.45117 994.43213 60.333336
47.028641 -665.21497 994.62354 4
48.557571 -665.30914 994.40765 13.25
80.5355 -665.53735 994.52081 3
48.807243 -664.47839 994.50574 15.5
49.803616 -664.01056 994.10388 43
50.037457 -664.05096 994.04156 21.25
79.695442 -664.60541 994.34497 3.1666667
48.940247 -663.81415 994.32709 21.5
49.587101 -663.6463 994.46753 42.583332
50.240616 -663.99176 994.70111 100
53.566845 -663.09479 994.35938 9.25
78.559814 -663.35156 994.11066 4.8333335
79.081055 -663.92584 994.2168 5.3333335
47.777451 -662.50604 994.19562 13.75
55.261318 -662.90839 994.66595 19.166666
56.784283 -662.79681 994.29315 19.333334
58.018051 -662.73645 994.01208 5
77.663475 -662.47296 994.14319 8.8999996
46.870441 -661.15955 994.76825 70
47.233749 -661.23462 994.42065 100
48.561733 -661.35596 994.31329 92.1875
51.822227 -661.07025 994.57593 31.75
52.172985 -661.53601 994.53735 7
53.446941 -661.38794 994.16449 5
54.003788 -661.57751 994.0401 10
56.816326 -661.47614 994.14862 18.5
76.752235 -661.50671 994.02319 9
77.021698 -661.80579 994.08582 11
50.507027 -660.26953 994.42505 24
52.736847 -660.09851 994.18903 59.75
53.458801 -660.20575 994.435 48.083336
56.458038 -660.39026 994.12274 38.416668
50.854767 -659.72729 994.68079 45
51.459866 -659.77673 994.51001 100
54.737934 -659.49249 994.45947 21
55.309536 -659.67725 994.33264 19.25
140.86646 -653.07263 994.11536 39.333332
139.73138 -652.51233 994.40033 26.666668
140.9422 -652.97949 994.3642 30
141.03679 -652.68054 994.57239 10
138.85101 -647.39557 994.56995 57.5
138.78943 -646.54156 994.07849 16
137.39468 -645.54785 994.29626 26.5
0.7446785 -844.80566 995.7334 63
106.77206 -839.27521 995.44238 63
105.20737 -833.88666 995.55701 61
117.35468 -826.21259 995.87183 32
119.25204 -826.66974 995.04767 15
117.46092 -825.47363 995.71771 16
12.138824 -824.02295 995.59998 46
117.48231 -824.57996 995.50653 26
117.42191 -822.95264 995.10803 16
13.762123 -821.79987 995.68506 46
119.29708 -821.75726 995.34882 17
15.47011 -819.41406 995.80438 46
17.124146 -817.09784 995.92352 41
92.448799 -801.50861 995.80933 33.5
49.812111 -797.15234 995.56305 2
50.772804 -797.04559 995.88141 5
51.552212 -797.36914 995.62677 24.12879
48.657032 -796.16376 995.74738 28.985834
49.56572 -796.65814 995.45563 22.75992
51.641651 -796.76215 995.00507 31.4
52.066792 -796.3302 995.44336 43.375
47.656013 -795.29248 995.7301 40.666664
48.368328 -795.61322 995.37018 35.595631
52.522816 -795.21802 995.70129 11.207589
53.204456 -795.18182 995.51257 10.14
52.706219 -794.77179 995.48615 24.703588
53.312302 -794.86768 995.59473 13.406566
48.901619 -793.44196 995.30933 3
49.747971 -793.12592 995.59399 8.6388884
50.183701 -793.28772 995.46936 9.9530296
53.685112 -793.3645 995.54688 13.25023
54.380161 -793.58002 995.28119 3.3068182
49.628147 -792.84552 995.60742 6.3919754
52.553955 -792.12219 995.38928 8.5249996
54.913784 -792.68866 995.29468 6.9000001
55.097759 -792.42346 995.19672 10.660715
43.49416 -791.08826 995.04034 25.75
51.619278 -791.46198 995.40265 1.9
52.639847 -791.5614 995.12628 8.9107141
53.396606 -791.30634 995.26318 10.452382
54.501163 -791.73822 995.20312 9.25
55.118984 -791.58105 995.57178 11.5
42.926193 -790.50244 995.08435 36.57143
43.237141 -790.8443 995.39429 24.571428
51.86618 -790.90533 995.79132 3
52.567177 -790.54022 995.45465 9.5917168
53.428047 -790.55652 995.7677 14.68889
54.588734 -790.77612 995.90381 14.555554
55.166065 -790.9585 995.9859 10.545454
93.883614 -790.63098 995.01746 23
94.003136 -790.56226 995.03271 33
52.621033 -789.89111 995.92352 10.513889
57.384472 -789.3573 995.96161 12.227272
39.881916 -787.39874 995.81085 17.222221
40.133648 -787.64337 995.70319 24.086309
88.826721 -785.02411 995.31122 39.666668
88.984062 -784.93396 995.24701 35
44.434235 -782.3053 995.41083 8.9900208
87.804291 -782.39478 995.67065 28
44.836006 -781.78149 995.78992 32.790909
45.391228 -781.44489 995.4007 26.140306
46.003708 -781.01764 995.11218 23
45.866806 -780.80139 995.89294 29.25
46.483574 -780.42548 995.5152 27.409567
46.796646 -779.96136 995.98132 36.642857
47.571266 -779.53973 995.48157 30.942169
48.284821 -779.12122 995.06818 26.691666
86.909599 -779.37842 995.1358 17.5
87.051514 -779.84204 995.07007 10
48.580795 -778.68506 995.55878 32.493935
49.218803 -778.25433 995.36963 19.55303
86.789505 -778.78546 995.19373 14.25
85.973946 -777.07733 995.55902 24
48.899769 -776.87726 995.82153 13.388889
49.31078 -776.50616 995.44189 14.323611
49.735397 -775.82959 995.60211 24.584469
50.184444 -775.29388 995.4328 25.581667
49.608234 -774.13678 995.28467 10.706019
50.632107 -774.49738 995.52563 11.466414
51.141235 -774.09967 995.21814 14
47.905529 -773.19287 995.66534 8.833333
48.366318 -773.39417 995.44336 8.3926764
49.461403 -773.76166 995.60413 16.350567
50.596283 -773.78235 995.51666 13.857142
51.110786 -773.97864 995.46924 7
84.906921 -773.08215 995.44537 10
99.40377 -773.09534 995.41687 6
46.571934 -772.18005 995.70117 6.3333335
47.672363 -772.00146 995.57556 3.6666667
48.196766 -772.64508 995.20166 3.9166667
99.34565 -772.85803 995.42236 13
46.901043 -771.88171 995.46863 4.4666667
47.37323 -771.77136 995.48566 2.8244443
50.418312 -771.63165 995.07361 2
83.994141 -771.03094 995.40186 12
84.306541 -771.52148 995.49805 23.802778
83.896782 -770.50781 995.48132 19.9
79.548294 -769.84717 995.9538 1
83.383255 -769.32422 995.56323 10.166667
83.42234 -768.78223 995.61456 18.949602
84.216385 -768.53943 995.90063 29.125
87.825394 -767.3891 995.28168 11.833333
88.44989 -767.21674 995.43604 30.599998
107.93346 -765.19385 995.97406 24.5
110.99379 -765.7774 995.27203 5
83.718246 -764.13464 995.60663 1.2
84.476196 -764.58435 995.5152 8.9974356
85.193939 -764.47571 995.62061 17.210476
91.766029 -764.43726 995.57123 12.75
103.23882 -764.00275 995.1991 24
107.78658 -764.34009 995.26532 41.416668
108.02383 -764.05292 995.71942 32.666668
82.659828 -763.27643 995.58289 0.78571427
83.276321 -763.71887 995.43176 0.60000002
85.77816 -763.8114 995.7135 15.848181
