# .PCD v0.7 - Point Cloud Data file format
VERSION 0.7
FIELDS x y z intensity
SIZE 4 4 4 4
TYPE F F F F
COUNT 1 1 1 1
WIDTH 1298
HEIGHT 1
VIEWPOINT 0 0 0 1 0 0 0
POINTS 1298
DATA ascii
397.50919 -599.58997 608.53406 17.625
397.78882 -598.28857 608.15656 19.444443
397.81119 -597.2395 608.28937 7.8000002
398.13437 -597.44507 608.77917 2
398.7818 -596.52985 608.4964 15.091667
398.64099 -595.74768 608.29236 5
399.75024 -595.73999 608.66736 17.733334
399.79449 -594.42926 608.6933 7.5
400.79132 -594.74548 608.88135 18.75
399.50146 -593.84344 608.18237 15
400.70416 -592.80872 608.52295 74.4375
371.81998 -806.00653 609.67816 8
372.07217 -806.35895 609.86182 8
371.49304 -805.54797 609.4245 7
372.14221 -804.69177 609.65735 20.5
372.54382 -803.57159 609.81879 10
372.88065 -802.43243 609.91248 16
370.49023 -799.83759 609.07904 13
370.80069 -798.90674 609.17377 17
371.17957 -798.08057 609.30634 15.5
371.37363 -797.39117 609.27734 15.825
371.76086 -796.34296 609.35712 23.166666
372.09628 -795.55048 609.42242 25.15
372.52222 -794.63544 609.41815 28.16
377.03146 -794.49164 609.05127 17.666666
372.76443 -793.68793 609.60944 29.683334
373.11743 -793.26361 609.44214 35.899998
373.44034 -792.51044 609.37787 33.733334
373.62604 -791.69177 609.51855 41.099998
374.06427 -791.01172 609.32849 42.599998
378.14569 -791.87268 609.13855 9
373.83774 -790.89471 609.75507 40.5
374.36563 -790.25806 609.4386 30.766666
363.64957 -785.72974 609.78143 18.083334
364.26877 -785.86407 609.64203 1.6666666
347.45425 -780.03101 609.7533 4.833333
350.59341 -780.15314 609.25659 10.416667
351.40152 -780.43536 609.76178 2.7083333
352.60245 -780.31152 609.63605 9.0142193
353.52872 -780.56055 609.47858 3.0250001
347.55542 -779.06049 609.95447 2
349.8978 -779.49744 609.10718 6.5
350.76068 -779.60889 609.35034 7.1436014
351.41098 -779.72864 609.55933 7.5108175
352.22842 -779.97198 609.22729 6
344.30527 -778.22034 609.37891 20.519047
345.23315 -778.00928 609.3783 2
346.28946 -778.26971 609.79541 4
347.49951 -778.22784 609.50372 14.333333
348.12045 -778.28784 609.7251 5
349.22757 -778.72101 609.41553 6.4791665
344.23004 -777.97931 609.66077 20.5
345.32251 -777.68848 609.29889 4.7222219
346.50278 -777.52863 609.47821 11.361111
398.92487 -623.13477 609.1214 15
399.35916 -623.47766 609.58344 26.362499
399.69635 -622.39856 609.38464 15.25
400.13409 -622.6806 609.88043 23.333332
399.84985 -621.19354 609.04974 26.5
400.50946 -621.52478 609.70001 17.914999
399.47516 -620.89032 609.45917 33.666668
400.52164 -620.58374 609.33453 16.333334
399.51877 -619.6994 609.013 18
400.49643 -619.35547 609.50055 9.458333
400.94006 -618.81305 609.76276 13.444444
401.0293 -618.87268 609.88104 15.25
393.60626 -614.10895 609.70642 4
399.76819 -614.05066 609.07745 9
392.78281 -613.08722 609.97131 8
393.18976 -613.34106 609.52325 7.8730159
394.47974 -613.68781 609.63367 2.75
400.36157 -613.66638 609.41235 13.849999
392.65692 -612.42822 609.43536 6.5999999
394.98645 -612.77899 609.74493 7
395.1976 -612.42816 609.66907 8.3000002
392.43362 -611.9657 609.21613 3
393.20386 -611.79681 609.85687 2.75
400.74414 -609.52716 609.64771 10.441072
401.11514 -609.77826 609.77374 7.8333335
400.63458 -608.51337 609.51471 13.920588
400.93738 -607.67896 609.67505 3
401.0365 -607.97498 609.85681 6.5
399.28214 -606.19696 609.31451 13.166667
398.48679 -605.40997 609.41833 5.8888893
399.03992 -605.83148 609.28253 13.5
396.9122 -604.3136 609.25 3
397.79175 -604.55286 609.48315 6.2857146
398.2446 -604.92352 609.1261 1.5
397.83072 -603.44647 609.75787 29.111113
398.2822 -603.54541 609.41711 40.133335
397.73392 -602.99103 609.70538 3.5
398.43542 -602.50446 609.81689 28.333334
398.3136 -600.14502 609.97552 4
397.83698 -599.51562 609.34503 4
398.11496 -599.87634 609.71368 4
398.82205 -598.5072 609.76532 2
398.40521 -597.86133 609.16785 2
399.55093 -597.0116 609.73334 1
399.30634 -596.547 609.34967 1.5
400.39923 -595.24243 609.72791 3
400.10605 -594.90509 609.22949 15.333333
401.302 -593.41351 609.59729 16.194445
373.43359 -808.26801 610.88538 10
372.73389 -807.28564 610.354 9
373.17972 -807.90948 610.67889 10
372.34375 -806.73865 610.06049 8
373.51343 -806.48438 610.75354 12.5
372.71762 -805.44476 610.12817 13.75
373.53864 -805.62451 610.65942 12
372.90387 -804.00684 610.09088 10
373.41568 -804.62531 610.47028 10.666667
373.80081 -803.46338 610.57092 18.5
374.20328 -803.91498 610.86169 19
373.24469 -802.84119 610.18408 17
374.17438 -802.34912 610.72241 13.5
373.51907 -801.6665 610.25372 13
374.59027 -801.32123 610.89728 14
373.79083 -800.54761 610.32617 13
374.58423 -800.39258 610.79559 10.333333
374.24695 -799.64282 610.51257 9
375.08572 -799.07446 610.96948 18
374.57996 -798.65363 610.61066 14
374.67041 -797.50964 610.617 13
375.1922 -797.91095 610.98022 14
375.2428 -796.75671 610.88501 14.5
375.46674 -795.76807 610.95099 13
372.82843 -794.05548 610.01691 10
375.73062 -794.82916 610.98615 13
373.02057 -793.20728 610.03223 13
373.2959 -792.42505 610.09253 20.5
373.57645 -791.65417 610.1712 18.75
373.83838 -790.87885 610.28558 20
374.1521 -790.13361 610.29596 18.955557
358.39502 -789.36407 610.95337 28
362.79022 -786.26245 610.77124 25.75
363.30121 -786.31934 610.37213 13
362.92249 -785.60272 610.76654 37
363.31833 -785.45776 610.33008 20.926664
351.96152 -781.11951 610.10248 24
352.1608 -781.09814 610.29785 15.5
347.72726 -780.21631 610.36566 8.7620754
348.15781 -780.47083 610.49957 5.9666662
350.69623 -780.48926 610.08569 3
351.81522 -780.47235 610.33301 3.6666665
352.3201 -780.45789 610.38898 5.5986395
353.40125 -780.66785 610.43341 6.25
345.20557 -779.19208 610.86127 30.800001
347.41473 -779.59558 610.49353 9.545455
348.53976 -779.2337 610.4978 9.3904762
350.54782 -779.47589 610.53223 7.4000001
351.55551 -779.94452 610.78998 3.4000001
344.4913 -778.05438 610.11377 11
345.40765 -778.40552 610.91046 26.465279
347.41254 -778.47717 610.80615 5.5291672
348.24655 -778.44061 610.28351 12.388889
344.76447 -777.62036 610.41956 4.1880341
345.09729 -777.22021 610.58112 6
346.7168 -777.784 610.31415 7.2000003
344.36078 -776.73779 610.46271 13.125
399.99631 -624.04407 610.25104 17.5
399.82001 -623.89795 610.06384 22.571428
400.63538 -623.36041 610.57153 17.358334
399.80838 -622.52966 610.31464 6.5
400.42908 -622.55011 610.29999 18.458334
401.33157 -622.45245 610.70758 22.874075
401.13559 -621.13226 610.04395 11
401.02286 -620.9458 610.7218 25.25
393.93018 -615.20544 610.44666 4.875
394.00589 -615.35297 610.48096 3
396.12793 -615.07288 610.94965 2
393.44638 -614.32294 610.23041 2.6666667
395.33868 -614.64038 610.66956 2.8333335
392.91055 -613.3205 610.01929 7
393.02286 -613.52588 610.06219 7
394.72675 -613.21442 610.10376 2
395.64075 -613.4483 610.4541 6.2666669
396.33652 -613.3194 610.85138 7.2142854
400.83951 -613.22858 610.41486 4.4027777
392.74985 -612.65137 610.03522 3.25
395.99207 -612.17706 610.14233 11.666667
396.306 -612.79431 610.565 7.1166663
400.69104 -612.80298 610.64484 7
401.22485 -612.75073 610.91266 0.8888889
394.14529 -611.51666 610.65942 1
393.87653 -610.94409 610.58667 1
400.88416 -610.2948 610.62775 10.333333
401.42804 -610.60059 610.39227 3.9333332
398.67148 -609.24329 610.5321 4.6666665
400.77362 -609.44696 610.65137 22.270834
398.73874 -608.36578 610.58575 5
399.50391 -608.49933 610.88428 11.2
400.29688 -608.5708 610.54791 22.65625
399.7435 -607.79932 610.63263 19.132143
400.35248 -607.62396 610.43652 12.653869
397.54276 -605.16376 610.50513 4
397.64398 -603.38208 610.46265 25.5
398.58484 -603.33923 610.30676 24.719999
397.97006 -602.03961 610.22675 5
398.29776 -602.51263 610.61078 10.583333
397.83838 -601.64301 610.1106 7.6666665
398.6015 -601.50452 610.73029 4.5
398.62524 -600.56604 610.38635 4
399.48483 -599.53009 610.71484 1.5
399.13058 -598.98035 610.2077 2
400.27841 -598.34796 610.87402 1
399.84561 -597.53259 610.19604 1
400.0621 -597.91949 610.53571 1
400.83014 -596.28723 610.48376 1
401.05664 -596.79187 610.87854 1
400.62057 -595.78284 610.11652 2
374.70352 -810.04968 611.82129 12
374.19147 -809.33136 611.44629 11
373.76224 -808.72711 611.11591 10
374.90295 -808.29285 611.76837 15
373.96594 -807.07239 611.07935 14
374.42023 -807.66376 611.41187 14.5
374.88489 -806.39978 611.53296 13
375.19495 -806.78247 611.82397 13
374.315 -805.71533 611.15759 12
375.51886 -805.39441 611.83325 11
374.64624 -804.41486 611.20874 22.75
375.75815 -804.00226 611.8739 15
374.88718 -803.09229 611.23468 14
375.23273 -803.45575 611.51648 15
374.58112 -802.7735 611.01904 14
375.52368 -802.22675 611.58569 15.333333
374.99158 -801.71008 611.18872 14
375.85632 -801.08929 611.6756 15
376.09375 -801.30762 611.92688 10
375.31052 -800.59802 611.27167 9
376.21628 -800.01562 611.77856 20
375.63339 -799.53033 611.36139 12
375.7467 -798.33752 611.37006 14
376.02771 -798.55383 611.57574 7
375.78882 -797.14429 611.26892 15
376.64447 -797.75122 611.8573 16
376.40579 -796.38086 611.5882 13.666667
375.73267 -795.94159 611.14014 13
376.44788 -795.25848 611.48468 13.666667
377.06757 -795.62921 611.8999 15
376.5477 -794.21075 611.46436 17.666666
377.12759 -794.5274 611.85175 17
376.43713 -793.43817 611.30737 13.833333
377.24768 -793.4928 611.82477 19
376.85248 -792.25427 611.48096 14.5
377.40149 -792.49927 611.85083 18
377.39566 -791.46313 611.73071 17.666666
357.89532 -789.08826 611.81781 38.875
358.4267 -789.35724 611.40442 17.261112
358.5058 -788.5282 611.39697 22.905136
359.62241 -788.40662 611.6062 27.799999
360.15094 -788.66113 611.95312 25
358.78391 -787.52563 611.45026 35.428787
359.47324 -787.46771 611.41772 25.120371
360.15683 -787.80005 611.87567 19
363.90582 -787.11255 611.53906 3
358.91614 -786.75177 611.61951 21
359.34448 -786.46686 611.44952 21.428137
360.1041 -786.38507 611.62457 22.222221
362.47882 -786.28741 611.50818 16.357143
363.42905 -786.29327 611.64398 0
364.03098 -786.11108 611.263 1
359.59012 -785.53925 611.539 22.499018
360.40457 -785.49799 611.6897 11.648149
362.50275 -785.54901 611.56702 28.274445
359.80093 -784.64575 611.71039 21.786911
360.41672 -784.5174 611.61371 15.398149
361.0564 -784.27692 611.92688 5.6666665
362.67212 -784.88715 611.70172 15.877777
351.79303 -783.21344 611.78723 20.471956
352.14511 -783.37756 611.90247 29.625
359.92834 -783.68561 611.87659 11
360.36581 -783.73505 611.7088 5.98
351.83914 -782.71313 611.9906 6
352.20508 -782.55652 611.86395 26.880016
352.43188 -781.68945 611.90759 22.5
353.23672 -781.41901 611.9621 20.457142
347.56796 -780.27069 611.53387 6.6666665
349.71851 -780.26093 611.67285 14.928572
351.54663 -780.35284 611.33545 3.8166668
352.4812 -780.44794 611.47144 5.4444447
353.54919 -780.84888 611.17255 4.9666667
345.77548 -779.28241 611.23535 52.563129
347.63443 -779.53278 611.40753 9.2225428
348.30429 -779.52631 611.21869 10.25
349.77597 -779.63513 611.32483 6.4030609
350.01392 -779.67371 611.52136 5
351.02859 -779.90625 611.91418 4
345.78293 -778.55969 611.1687 33.716663
346.26184 -778.47186 611.46985 42.288887
347.25269 -778.54706 611.12665 5.3333335
348.6199 -778.81519 611.21698 12.083334
344.52472 -777.01868 611.62646 7
345.63446 -777.63239 611.03857 6
346.10452 -777.98334 611.35059 12
342.61832 -776.40015 611.55371 5.833333
400.57159 -623.45093 611.06787 8
400.32196 -622.00385 611.04236 21.5
401.19168 -621.47662 611.34937 4.75
401.84482 -620.96893 611.8327 18.4
401.45654 -619.63586 611.00769 6
395.59766 -615.26276 611.27637 2.3333333
396.6192 -615.25671 611.88538 1
395.74475 -614.39374 611.33063 3.4444444
396.60635 -614.3255 611.47595 3.425
397.37424 -614.20007 611.61743 1
396.7579 -613.83478 611.12933 3
397.77448 -613.4353 611.59723 7.5
398.10846 -613.87128 611.83185 9.25
397.98975 -612.34894 611.49402 4
401.73584 -612.50665 611.66376 12.301588
402.09729 -612.4632 611.68658 6.2653317
401.5993 -611.87073 611.87097 22.125
402.1814 -611.64093 611.92395 4.3499999
400.72195 -610.19238 611.68719 21.481482
401.10483 -610.38611 611.46094 17.125
399.76553 -609.23352 611.66211 2.7
400.39441 -609.57019 611.41412 18.319523
398.57294 -608.07678 611.38458 3
399.44922 -608.39899 611.40649 13.417459
400.08444 -608.91669 611.26453 19.166666
398.8779 -607.60303 611.78064 22.194443
399.45081 -607.40796 611.41223 25.061625
399.45288 -606.68256 611.72729 6.6666665
398.67374 -604.01984 611.72931 8
398.33148 -603.79938 611.3103 10.125
398.75635 -602.55902 611.26263 4
399.43219 -602.50439 611.789 3.5
399.37515 -601.56818 611.37579 2.75
399.89923 -600.19122 611.30627 1
400.18314 -600.66089 611.70984 1
399.70651 -599.88647 611.03107 1
400.85562 -599.49194 611.77606 2
400.53302 -598.84253 611.27234 2
401.65405 -598.20917 611.9223 1
401.38232 -597.55182 611.4472 1
376.12653 -812.04199 612.82367 28
375.12177 -810.64282 612.16748 18.5
376.38568 -810.19739 612.64539 18
375.62598 -807.30664 612.15906 14
377.07635 -807.14636 612.96637 13
376.53149 -806.53296 612.56714 24.5
376.00781 -805.94373 612.18427 11
376.25909 -804.52502 612.23181 16
376.72791 -803.39209 612.42798 17
377.1882 -803.83954 612.77429 18
376.27646 -802.95276 612.07977 16
377.20007 -802.29584 612.61469 11
376.7471 -801.88794 612.28143 11
377.65045 -801.20917 612.78851 12
376.42749 -800.19543 612.01605 15
377.54889 -800.41144 612.66663 9.5
376.77399 -799.13055 612.17017 11
377.60388 -799.76593 612.66125 8
377.12436 -798.09637 612.39801 14
377.66138 -797.20056 612.50342 14.5
377.57233 -796.52563 612.37463 15
378.63843 -796.56799 612.98059 11
377.5152 -795.89685 612.21014 15
378.35416 -795.19482 612.77173 15.5
377.55682 -794.76141 612.15076 17.5
378.62204 -794.17145 612.79547 18.333334
377.68781 -793.71082 612.11829 17.5
378.4411 -793.51569 612.58435 15.5
379.00217 -793.20978 612.99329 21
360.28217 -792.00757 612.3678 15
377.99997 -792.76648 612.24457 14
378.64288 -792.50128 612.62061 20
379.16183 -792.16644 612.90924 10
359.9614 -791.71313 612.62927 25.5
360.21533 -791.48358 612.47766 23.653332
377.97757 -791.6955 612.11188 19
378.41821 -791.87109 612.40411 19.5
360.58398 -790.54828 612.64215 20.76984
357.72278 -789.00549 612.12561 35.299999
358.68741 -789.45294 612.24219 4.791667
360.69608 -789.31659 612.38678 32.466667
361.38586 -789.55603 612.80243 14.6
357.75739 -788.46338 612.48285 30.536112
358.34882 -788.44012 612.08691 18
360.59039 -788.42609 612.20789 16.9
361.34839 -788.41357 612.74695 17.708332
357.94766 -787.65973 612.80975 25
358.62155 -787.83221 612.47711 27.646561
361.79297 -786.32404 612.71619 10.095239
362.15292 -786.05823 612.09375 1
361.80435 -785.30176 612.64386 35.875
362.20981 -785.15186 612.37939 24.82
359.71387 -784.59448 612.08496 8.666667
361.72903 -784.4278 612.47699 3
362.271 -784.6936 612.51086 7.2642856
351.52277 -783.25439 612.03577 4
359.8241 -783.57361 612.19971 7.7083335
351.78851 -782.5484 612.1889 4.25
352.42001 -782.41797 612.02417 28.555555
347.80615 -781.12988 612.74426 109.17171
348.04727 -781.32666 612.91455 102
352.52625 -781.61694 612.22137 15.315079
353.36133 -781.33514 612.19568 12.5375
347.48499 -780.46844 612.4751 103.8921
348.19211 -780.53168 612.94312 101.61301
349.20789 -780.16626 612.14728 31
350.72418 -780.50989 612.33203 4.9000001
351.00217 -780.46014 612.04852 10
352.50931 -780.68292 612.31622 8.166667
353.2352 -780.88013 612.1214 9
347.65601 -779.51508 612.50604 64.213852
348.30557 -779.45532 612.77258 65.357956
349.30853 -779.6167 612.07983 9
350.26212 -779.75079 612.50006 4
351.0993 -779.96777 612.08966 4.2857141
347.70764 -778.78491 612.604 43.125
348.67462 -778.99664 612.45123 10
340.16956 -775.89124 612.92444 13.75
396.8674 -615.00287 612.11658 2.4000001
397.65161 -615.11597 612.22937 2
398.58817 -614.73669 612.54401 6.1388888
399.24219 -614.36255 612.84344 8.0375004
402.51984 -614.35956 612.83142 5.6533337
398.92294 -613.16455 612.02985 6.333333
399.43161 -613.35974 612.57245 5.5694442
400.04385 -613.57428 612.92212 5
401.84045 -613.24731 612.52454 7.125
402.4473 -613.51312 612.45605 4.8235455
403.03952 -613.83588 612.95459 3.8888888
396.05377 -612.62256 612.44055 1.5
398.65347 -612.80408 612.08105 6
399.51617 -612.48474 612.48792 7.5625
400.10983 -612.48456 612.90283 6.5999999
401.66638 -612.46222 612.5506 19.589523
402.52838 -612.86072 612.16553 3
400.54037 -611.78516 612.90533 14.142858
401.58871 -611.55487 612.53998 13.988095
402.17191 -611.4729 612.1217 4.5833335
399.84006 -610.026 612.53589 3
400.34592 -610.22949 612.16095 12.045
401.45047 -610.94531 612.82257 5
399.57352 -609.57776 612.42896 4.1481485
398.92297 -608.98102 612.80682 5
399.22241 -608.73022 612.06006 3.75
398.53421 -607.35034 612.3537 21.459259
399.43402 -607.06726 612.43359 17.700001
398.80054 -606.68451 612.47614 10.111111
399.59311 -606.48248 612.53375 25.714743
399.20416 -605.69159 612.62396 9.125
398.93469 -604.20117 612.04584 6
399.38956 -604.63287 612.57178 6
399.67709 -603.57922 612.39868 2.4000001
400.50116 -603.0614 612.86139 3
399.93817 -602.30524 612.12024 3
400.22433 -602.68555 612.49762 3
401.06503 -602.09039 612.96417 3
400.69409 -601.4812 612.43756 1.8
401.39047 -600.55182 612.6106 1.1666666
401.08142 -599.93384 612.1286 1
402.11996 -599.36279 612.73706 2
401.80298 -598.57538 612.1828 1.5
402.93759 -598.33795 612.89221 5
376.89661 -813.13818 613.47467 15
377.32928 -811.4588 613.55432 19.5
376.66437 -810.59198 613.07507 18
377.20493 -809.20795 613.2171 32.5
377.6279 -807.76862 613.38239 13.5
378.68466 -807.05969 613.97937 18
378.25595 -806.60596 613.61108 18
378.78848 -805.38379 613.81549 20
377.93048 -804.54932 613.17328 19
378.48218 -803.44781 613.51105 12.333333
377.82748 -802.85742 613.0199 12
378.26706 -800.27643 613.133 8
379.19452 -800.9837 613.60236 9
378.89429 -799.34656 613.38129 18
379.41931 -799.71918 613.75671 13.5
379.75647 -798.56482 613.71704 8
380.04837 -798.75543 613.94135 9
378.85248 -797.97638 613.20862 20.5
379.38037 -797.01123 613.47253 12
379.05484 -796.81689 613.23865 18
379.56134 -795.85388 613.49542 13.5
361.81995 -794.17493 613.52637 15.5
379.61053 -794.66113 613.4137 15
361.48199 -793.51245 613.46112 17.726191
362.08798 -793.5603 613.65088 22
379.11557 -793.25525 613.18927 16
380.13864 -793.71875 613.66541 17
360.75409 -792.56799 613.82507 3.5
362.45483 -792.65222 613.86597 23.266666
379.53259 -792.30908 613.24213 14.333333
380.61548 -792.74512 613.8457 12
361.09549 -791.70325 613.97992 2
362.81479 -791.75061 613.93188 45.75
362.88605 -790.25427 613.80371 10
361.97192 -789.43201 613.16193 13
362.47861 -789.53925 613.48187 12.333333
363.18323 -789.42969 613.91589 12
358.77118 -788.04736 613.883 28
359.04318 -788.30566 613.96924 47.25
361.31421 -788.26398 613.17975 19
362.02023 -788.81396 613.12384 14
357.79916 -787.58411 613.07617 24
360.77661 -784.10468 613.57452 8.1000004
361.02936 -784.22668 613.70148 8
360.34952 -783.89661 613.36639 7.5
348.24994 -781.04163 613.04053 86
348.49164 -780.40564 613.10919 78.333328
350.37988 -780.10016 613.0379 3.5
351.62613 -780.42914 613.57245 8.041667
348.73123 -779.53192 613.39783 40.083332
350.37558 -779.93402 613.72217 7.1666665
337.3241 -776.10413 613.85205 36.900002
340.82803 -776.42395 613.79889 13
341.41589 -776.38214 613.56543 12.357143
342.17886 -776.48828 613.55151 14.761905
337.58063 -775.46082 613.93353 9.5
402.1911 -617.38873 613.32349 4.5093751
402.20242 -616.82104 613.25775 8.5714283
399.21823 -615.01062 613.14862 5
402.57419 -615.07153 613.51855 9.8962965
403.54691 -615.06079 613.8653 10.333333
399.80576 -614.48022 613.22296 8.3305559
400.17426 -614.50897 613.51453 9.1083336
402.44135 -614.61285 613.28271 14.576466
403.32364 -614.61609 613.48297 8.6747465
399.49707 -613.47131 613.04547 7
401.80148 -613.31244 613.65961 22.712036
402.12811 -613.71667 613.51184 21.713655
397.43954 -612.26385 613.52832 4.3566666
400.77509 -612.34027 613.66449 4.5010419
401.41037 -612.60449 613.41772 22.030806
398.30777 -611.69708 613.8858 2
399.84317 -611.84174 613.95746 2
400.47861 -611.50037 613.54779 18.099312
401.28104 -611.32568 613.1673 11.307021
400.80658 -610.71362 613.72632 8.625
401.1803 -610.87598 613.24786 7.7590909
398.88937 -609.06458 613.79352 42
399.19135 -608.45569 613.78894 15
398.90359 -607.54108 613.19409 16
399.31567 -607.74347 613.60657 14.625
399.54971 -606.75989 613.36713 11.575757
400.16418 -606.37659 613.86621 5
399.63501 -605.62744 613.14209 4.6666665
400.48853 -605.40167 613.73877 5.8333335
400.54181 -604.55914 613.46069 4
401.23337 -604.0423 613.82446 3
400.7825 -603.44135 613.23126 3
401.36279 -603.44849 613.70557 3.1666665
401.3588 -602.57745 613.38049 2.75
402.19708 -602.17365 613.86578 3
401.85068 -601.47528 613.32721 2
402.45425 -601.52979 613.82874 2.75
402.60843 -600.56909 613.58899 2.375
402.34598 -599.9165 613.13135 2.5
403.34592 -599.5921 613.7124 4.3333335
403.06549 -598.73047 613.14941 5
377.94394 -812.26495 614.03143 21
379.20526 -807.61072 614.42456 19
379.79211 -806.36456 614.61987 22
379.24673 -805.83264 614.19739 21
380.37109 -805.15076 614.91064 14
379.53738 -804.39581 614.24304 13
380.17261 -804.96765 614.69946 14
380.48004 -803.56512 614.78125 15.5
379.74756 -802.95178 614.19763 15
380.77814 -802.20703 614.8457 10
380.22095 -801.77734 614.43103 9.5
379.99506 -800.12762 614.15875 9
380.59647 -800.55426 614.57751 9
380.7222 -799.19446 614.38062 9
381.16266 -799.48248 614.79797 9
381.50128 -798.27795 614.80481 15.5
380.56168 -797.71716 614.14496 7
381.97131 -797.16895 614.927 10.666667
363.51239 -796.57727 614.83728 24.5
380.91022 -796.59033 614.28412 7
363.77762 -795.7934 614.9826 28.333334
380.78601 -795.24194 614.18079 13
381.59625 -795.64148 614.72284 14
362.8396 -794.54572 614.21387 14
363.56238 -794.48352 614.88147 17.25
381.57861 -794.36475 614.47949 16
361.8544 -793.4093 614.06683 8
362.26807 -792.52063 614.14154 28.5
380.98511 -792.8916 614.09259 12
361.32663 -791.15106 614.05383 5
362.79584 -791.36792 614.17163 38.214287
363.06122 -791.18427 614.00208 17
363.58731 -790.36835 614.24585 12.666667
364.42651 -790.5564 614.7876 14.666667
359.77386 -789.04865 614.45007 39.5
363.48996 -789.3252 614.3028 11.857142
364.12659 -789.80756 614.54553 10
356.08646 -788.38391 614.97278 26.333334
359.41049 -788.67877 614.21063 39.333332
360.19913 -788.74103 614.36603 37.285717
351.88696 -780.65723 614.34015 8.25
348.97742 -779.48138 614.70319 5
338.76245 -777.03357 614.89893 35
339.80267 -777.43988 614.4848 26.392857
337.78775 -776.40021 614.19452 39.533333
338.60309 -776.53876 614.74146 33.775002
339.93134 -776.77032 614.40271 23
340.10812 -776.91925 614.65363 23.688889
341.26053 -776.7301 614.11719 12
337.68387 -775.5451 614.0899 14.25
338.1799 -775.87079 614.43604 19.916668
399.54776 -617.62781 614.42694 6.2857146
400.27335 -617.56616 614.87885 5.0833335
403.41647 -617.22443 614.65448 16.238726
400.44217 -616.7804 614.85968 4.875
402.85632 -616.42261 614.64783 19.334259
403.36655 -616.48755 614.36603 12.906082
404.23264 -616.37964 614.86218 23.926027
402.75272 -615.67847 614.66132 22.269232
403.41995 -615.41077 614.3559 9.7106895
404.09949 -615.71265 614.492 27.715765
401.65543 -614.23584 614.67517 13.606627
402.4743 -614.58276 614.4458 20.292603
403.26755 -614.93787 614.38751 6.875
400.86407 -613.29132 614.69299 4.5
401.32794 -613.55255 614.37878 11.434003
400.39902 -612.44885 614.48981 3.9710927
398.06525 -611.96027 614.05548 6
399.72546 -611.55792 614.60089 8.4829226
400.14502 -611.69562 614.28186 12.033334
399.78113 -610.80963 614.53497 21.694445
400.52267 -610.63226 614.48389 12.206615
401.19153 -610.63147 614.92004 19.96875
400.63776 -609.69647 614.73004 21.702564
399.66806 -608.62933 614.24725 12.416667
400.22107 -608.47235 614.74109 8.333333
399.82452 -607.83679 614.16272 12.541667
400.33258 -607.45477 614.4552 6.6666665
400.64114 -606.72235 614.39618 5
401.18115 -606.45258 614.72449 5.6833334
400.72281 -605.88641 614.11548 6.833333
401.44357 -605.37109 614.49957 4.8333335
402.08401 -605.17322 614.94177 4
401.63226 -604.57959 614.34796 4
402.35126 -604.22534 614.78369 3.125
401.92062 -603.51685 614.17517 4
402.55255 -603.36243 614.59595 4
402.39789 -602.58215 614.17737 3
403.28687 -602.28271 614.76984 3.5
402.94977 -601.42639 614.18365 3
403.69263 -601.3927 614.71094 4.25
403.65182 -600.53058 614.32452 5.5
380.61768 -813.36896 615.86334 20
380.99445 -809.47571 615.63666 22
381.49692 -808.01849 615.82288 24
380.60446 -807.15009 615.16211 23
381.05234 -807.58533 615.487 24
381.63086 -806.27838 615.70996 15
381.09424 -805.79669 615.34924 14
381.60889 -804.50372 615.5415 17
382.03894 -804.86285 615.8631 18
382.16055 -803.27063 615.80609 11
381.25742 -802.57776 615.23401 10
382.65475 -802.01379 615.99756 10
381.50064 -801.19592 615.22424 12.5
382.28976 -800.21783 615.69861 13.333333
381.78088 -799.88544 615.23389 10
381.83212 -798.47479 615.12146 16
382.49341 -798.86902 615.60669 17
382.3764 -797.38538 615.39697 16.5
383.11011 -797.78296 615.94684 17
363.39349 -796.49231 615.0354 28.6
382.69238 -796.18182 615.45135 15
383.15332 -796.40875 615.76141 16
364.17325 -795.18481 615.13934 19
382.2048 -795.94104 615.14117 15
383.49603 -795.20972 615.87317 15
364.36511 -794.37958 615.26587 23.200001
382.78012 -794.89563 615.32495 15.75
364.53204 -793.59894 615.48755 38.700001
383.34167 -793.83026 615.55511 21.333334
364.79941 -792.91394 615.56848 29
365.15723 -792.3125 615.54688 19.25
364.78467 -791.11676 615.05627 17
365.41843 -791.35614 615.48535 12.666667
366.12772 -791.3479 615.9436 12
364.90521 -790.40686 615.08887 11
365.34811 -790.7478 615.39941 9.5
361.69162 -789.4762 615.85236 10
358.87607 -788.46545 615.58508 36
359.24023 -788.65057 615.48792 56.111111
360.03873 -788.72339 615.19012 16.333334
361.76746 -784.89966 615.86646 2.875
350.74994 -780.36694 615.61853 3.5
348.99036 -779.63318 615.89685 5
349.01062 -779.65405 615.94714 5
403.45129 -628.16937 615.45892 27.833334
403.80435 -627.79956 615.90833 28
404.1546 -619.09991 615.90161 25
401.18521 -618.30042 615.7594 7.5246153
403.58603 -618.42883 615.48096 12.132997
404.39877 -618.3382 615.73547 19.137646
400.72443 -617.47205 615.18896 6.1964288
401.17203 -617.6629 615.50159 8.5111113
403.33087 -617.51215 615.36761 20.623032
404.50873 -617.46954 615.48956 22.221775
400.66812 -616.76831 615.15167 10.566667
401.22241 -616.29126 615.24908 7.7869048
402.65793 -616.31293 615.65167 35.725269
403.177 -616.83521 615.60413 25.673611
404.68469 -616.60828 615.2998 29.931774
405.14966 -616.87451 615.75464 30.431818
401.83481 -615.36487 615.78333 24.788889
402.44711 -615.38531 615.3371 29.140394
403.04388 -615.15765 615.11017 11
400.90839 -614.02991 615.43384 0
401.35489 -614.31671 615.40985 18.424622
402.43805 -614.6886 615.62146 26.430241
400.68491 -613.53296 615.36188 4.9432292
401.06042 -613.96967 615.21112 3.55
399.83072 -612.18628 615.18402 3.5333335
400.18552 -612.71887 615.23486 3.9583335
399.71234 -611.54675 615.25293 9.9250002
400.19183 -611.41223 615.76819 12.571428
399.75122 -610.7561 615.12115 18.248148
400.56998 -610.65619 615.51166 18.708307
401.05566 -610.6626 615.12354 22.5375
400.54102 -609.67816 615.45825 12.642608
401.42487 -609.12048 615.99261 6.5
400.73929 -608.64105 615.25739 8.9333334
401.40616 -608.47803 615.72565 7.3333335
401.50775 -607.56476 615.4408 4.6500001
402.21405 -607.18567 615.86243 4.833333
401.74527 -606.77393 615.31439 5.3333335
402.37183 -606.27618 615.63342 4.875
401.79501 -605.90881 615.0097 4.4000001
402.448 -605.62177 615.42273 3.55
403.10471 -605.36469 615.85059 4.9000001
402.74506 -604.82593 615.34192 3.75
403.37152 -604.47198 615.68231 4.0999999
402.93002 -603.67548 615.00159 3
403.62958 -603.56934 615.52747 3.05
403.45618 -602.7052 615.06311 3
404.3215 -602.57782 615.65466 6.1666665
404.10751 -601.91382 615.2301 4
382.53519 -809.02728 616.5675 26
382.04138 -808.54639 616.1994 25
382.58292 -807.1366 616.40363 16
383.12967 -807.62891 616.79291 17
382.07822 -806.68225 616.04565 15
383.6843 -806.23242 616.99542 20
382.57214 -805.30646 616.22589 19
383.13702 -805.77661 616.61523 20
383.41074 -804.23297 616.68634 11.5
382.59906 -803.6087 616.13092 11
383.42157 -802.5575 616.52411 10
383.58228 -801.05927 616.50836 11
384.11557 -801.40662 616.86804 11
366.29669 -800.53577 616.98822 23
383.73328 -799.60858 616.41534 19
384.23111 -799.9054 616.75452 10
365.19772 -798.53668 616.14777 29.666666
384.61554 -798.60248 616.88788 19
365.68121 -797.35364 616.38452 27
383.49454 -797.99011 616.2926 9
366.11118 -796.32556 616.38824 16
383.61847 -796.63599 616.1297 20
365.62009 -795.79681 616.17657 19.666666
366.43384 -795.5639 616.67017 37.777775
383.97012 -795.41949 616.19086 16
384.19751 -795.51379 616.4707 20
366.75665 -794.79309 616.77197 30.200001
383.98047 -794.07819 616.05017 17
384.43735 -794.25806 616.35968 17
366.92691 -793.91785 616.9176 20.875
367.33246 -793.24603 616.92975 21.5
367.40936 -792.33447 616.8399 13.5
366.62622 -791.73145 616.2887 12.5
367.29102 -791.32324 616.61426 19.5
366.64948 -790.87128 616.41687 14.8
360.56198 -789.39404 616.7124 17.444445
361.8743 -789.72363 616.76465 23.125
359.42465 -788.34589 616.14014 35.416668
360.39496 -788.49896 616.60376 6.7407408
359.62814 -787.47791 616.34094 25.488888
360.51462 -787.54425 616.6228 10
359.84195 -786.48907 616.65167 15.438889
360.45694 -786.49725 616.44067 17.613096
360.55069 -785.92773 616.40747 9
362.67783 -785.35748 616.50702 2.7333333
363.17004 -785.60315 616.86035 3
353.68808 -781.55121 616.69849 3
351.85001 -780.69623 616.1579 3
347.42624 -779.23218 616.84106 13.333333
349.01895 -779.77356 616.89423 5
403.66986 -627.52997 616.40662 42.311905
404.25452 -627.29926 616.48621 22.049999
404.56635 -626.9563 616.88757 16.5
404.60992 -621.12695 616.93408 20
404.85031 -620.5072 616.8844 6.0769234
403.9436 -619.11786 616.31006 30.495455
404.58795 -619.4118 616.62415 14.117901
405.36472 -619.53058 616.91406 28.759911
401.55139 -618.68976 616.09381 4.4444447
403.63321 -618.5896 616.6911 35.541756
404.46906 -618.75665 616.47742 13.808133
405.50525 -618.53278 616.63257 36.121658
402.69257 -617.35156 616.60437 27.924044
403.24673 -617.73254 616.38898 38.788609
405.51678 -617.56207 616.28094 32.479904
406.07074 -617.82104 616.81042 33.56871
401.9993 -616.34222 616.36884 5
402.35608 -616.61108 616.2699 18.839043
401.76758 -615.63416 616.09436 11.168481
401.85028 -614.50696 616.21649 29.780554
402.08514 -614.66199 616.21326 33.601746
402.16858 -613.43091 616.71893 13
400.71115 -611.33173 616.18158 9.7243109
401.15594 -611.11713 616.5882 7
400.79312 -610.63318 616.08466 13.402118
401.48663 -610.53107 616.61975 8.3178349
401.52533 -609.61902 616.2796 8.5543156
402.34509 -609.40826 616.85699 7.8259254
401.87805 -608.81628 616.23792 7
402.51733 -608.48663 616.62323 5.7083335
403.15311 -608.03357 616.95343 4
402.64444 -607.5661 616.36102 4.6857138
403.35013 -607.36292 616.85187 3.8357143
402.80136 -606.66144 616.13776 4.2777777
403.48242 -606.43549 616.59381 3.3898809
403.60397 -605.50873 616.31238 4.4166665
404.12143 -605.73523 616.82697 2.5
403.61771 -604.90143 616.06036 3.6666667
404.48895 -604.40521 616.54364 3.6517856
404.62958 -603.50488 616.25861 4.5999999
382.66968 -813.45239 617.04065 21
383.74835 -810.20428 617.41382 29
384.05646 -810.51678 617.79016 29
383.70776 -808.14893 617.19427 18
384.27341 -808.65881 617.60425 19
384.83875 -807.19427 617.80731 21
384.30399 -806.74817 617.42084 21
384.81009 -805.30981 617.66333 13
384.22797 -804.86182 617.25513 12
384.49338 -803.3175 617.27448 11
385.38397 -803.94879 617.88147 12
385.24954 -802.14526 617.63196 12
366.94504 -801.42438 617.36542 12
384.66418 -801.76392 617.2467 11
366.60852 -800.95392 617.13647 18
367.2077 -800.31012 617.58563 34
384.79831 -800.24377 617.12775 10
385.67688 -800.76746 617.71368 10.5
367.58252 -799.36261 617.76105 33
385.69034 -799.18585 617.61682 10
367.9245 -798.4129 617.9104 33.25
385.14627 -798.8905 617.25055 9
367.9552 -797.13684 617.61029 23
368.42203 -797.62622 617.94183 24
385.45544 -797.54224 617.28552 13.5
386.3075 -797.96112 617.85669 9
367.75073 -796.93921 617.57709 28.5
385.52466 -796.10767 617.21814 17
386.28955 -796.44147 617.81061 18.333334
386.57623 -795.10205 617.7627 20
386.03586 -794.88947 617.40088 20
367.19159 -793.14368 617.06097 21
368.43524 -793.1239 617.55029 10
368.40466 -792.59424 617.46075 13
369.26105 -792.71948 617.97748 11
367.96548 -791.80145 617.10052 20
368.43433 -791.65564 617.32568 12
367.85532 -790.80499 617.39471 23
368.24686 -790.34119 617.27661 22.75
369.005 -790.62512 617.52136 9
361.56824 -789.54041 617.37402 5.625
362.14227 -789.23816 617.74451 4
361.49005 -788.54572 617.2937 4.5999999
362.16577 -788.47736 617.78894 7
354.64105 -787.50323 617.60693 17.233334
361.49646 -787.48047 617.26947 6
362.26868 -787.54633 617.75311 6.0555553
354.93347 -786.85596 617.43713 21
355.14468 -786.35583 617.42804 10.3
361.66245 -786.52106 617.29791 4.6500001
362.42072 -786.61591 617.77466 8.333333
355.23001 -785.8324 617.72168 7
361.68195 -785.98975 617.25525 8
362.64056 -785.86011 617.87244 4.833333
363.42352 -785.73059 617.03296 2.5
354.3316 -782.02679 617.92102 3
354.15945 -781.89972 617.60895 3
342.15674 -779.61249 617.95911 23
346.75049 -779.53857 617.60077 14.083333
347.59128 -779.4184 617.28479 9
348.03061 -779.80511 617.75519 6.1999998
404.04526 -627.02539 617.0224 50
403.80356 -626.81799 617.48755 28.388891
404.38092 -626.5387 617.63965 41.392857
404.86426 -622.33325 617.84882 17.772728
405.05655 -622.59308 617.80762 10
404.58273 -621.59833 617.55157 14.809525
405.5343 -621.54657 617.78125 16.901831
403.91748 -620.06812 617.90479 29.639206
404.38239 -620.71594 617.97858 35
405.45447 -620.53607 617.35223 20.084883
406.15543 -620.42725 617.84167 27.5
403.74951 -619.62604 617.59363 41.129421
404.45551 -619.63245 617.422 16.833628
405.70447 -619.59314 617.19147 35.966549
406.35742 -619.49591 617.68091 37.865444
403.53601 -618.57422 617.50098 28.626083
404.21063 -618.8374 617.30548 13.528571
406.53787 -618.5155 617.43842 30.515419
407.14597 -618.24805 617.93304 31.879168
402.86133 -617.95642 617.05219 37.363636
406.51736 -617.96063 617.19556 32.079166
407.29288 -617.73065 617.85229 37.403439
401.87268 -611.08685 617.15106 8.333333
402.40268 -611.07684 617.57349 8.2238092
402.61365 -610.4809 617.51025 8.636405
403.22363 -610.25537 617.9209 7.6084819
402.67053 -609.60162 617.19928 7.7303028
403.39957 -609.45129 617.74463 6.695971
403.60617 -608.5733 617.54645 4.9451332
403.69724 -607.68671 617.25641 4.2962966
404.27542 -607.49609 617.65479 4.6428571
404.44559 -606.57611 617.42694 1.75
405.1391 -606.27087 617.87177 2
404.81769 -605.60828 617.34979 2.4333334
405.30655 -605.50775 617.55774 4.3523812
405.06924 -604.81903 617.10925 3
383.89386 -810.39618 618.11884 29
384.51575 -808.91028 618.26776 19
384.991 -807.36011 618.6651 44
385.16736 -807.48981 618.45776 33
385.7749 -806.05756 618.4809 29
385.52429 -805.86975 618.44629 21.5
386.22507 -804.54767 618.58014 21.666666
368.51059 -803.68439 618.68707 31
386.90292 -803.22205 618.81287 28
368.97043 -802.60101 618.78528 41
385.84174 -802.53088 618.04065 13
386.46863 -802.93903 618.46283 13
368.10654 -801.46033 618.12372 27
369.39896 -801.55542 618.98828 26.666666
386.55817 -801.2926 618.31171 12
387.21237 -801.68231 618.7525 13
387.51852 -800.17761 618.85455 11
386.60974 -799.68488 618.23212 10.5
386.88623 -798.24567 618.24182 10
387.53778 -798.56598 618.67114 10
387.84235 -797.13165 618.7616 20
368.62982 -796.62787 618.21143 26
368.97647 -795.76208 618.33716 21
387.44797 -795.44537 618.33759 21.5
388.40543 -795.82281 618.95966 24
369.55325 -794.35547 618.48871 24.416666
369.71616 -793.04187 618.2854 12
370.23068 -793.40649 618.63531 12
366.78156 -791.93933 618.69983 21.1
363.59009 -790.43634 618.71967 10.444444
362.75082 -789.46832 618.17566 5
363.49374 -789.63605 618.65186 7.9166665
364.0918 -789.52319 618.96875 12.666666
354.56155 -788.56104 618.94354 3.3333333
362.74649 -788.39478 618.13336 7
363.62729 -788.55585 618.68823 7.125
354.19214 -787.30231 618.52875 17.266666
362.84464 -787.43842 618.11346 6.75
363.60706 -787.54541 618.59637 5.4166665
364.03348 -787.41785 618.8465 4
362.98859 -786.78461 618.14093 5
363.453 -786.56146 618.42303 4
364.17917 -786.71722 618.90125 4
354.71158 -782.3064 618.60077 4
355.42755 -782.83801 618.91473 6
350.802 -780.62537 618.36255 3
342.19046 -779.6438 618.00134 49
345.98788 -779.83838 618.23718 9.3999996
346.92053 -779.74207 618.0498 18.5
348.04028 -779.91901 618.42767 5
405.34164 -626.34528 618.57983 18
404.75128 -622.45667 618.20972 29.25
405.561 -622.50647 618.51733 13.579545
406.20892 -622.22461 618.89319 35.169643
404.63437 -621.3078 618.55743 18.564947
405.34955 -621.74756 618.59418 17.933334
406.44092 -621.36371 618.6358 31.686508
403.80551 -620.21649 618.31604 37.026924
404.30359 -620.3349 618.59662 19.748718
406.56946 -620.54858 618.39966 33.142063
407.20013 -620.34607 618.87634 26.188095
403.54834 -619.73145 618.10162 27.733334
404.34369 -619.90515 618.14008 16.020832
406.78174 -619.57965 618.18933 30.117647
407.36209 -619.40759 618.63593 34.327099
403.68146 -618.61725 618.06226 15
406.91177 -618.99475 618.05695 34.625
407.51154 -618.52106 618.38672 37.125359
408.05222 -618.27173 618.76575 32.628677
407.75012 -617.80963 618.28888 34.458332
408.20795 -617.89594 618.73529 29.333334
403.79132 -611.06885 618.70911 5.5704546
404.10135 -611.15515 618.99274 7.4000001
403.62811 -610.58429 618.3858 6.9507551
404.30441 -610.40167 618.86932 6.8164921
403.81927 -609.52094 618.11536 6.2509193
404.5108 -609.44568 618.6402 4.6640024
404.57416 -608.47424 618.29657 4.5312042
405.16248 -608.54358 618.82031 3.0444446
404.81836 -607.51422 618.117 1.8867521
405.5621 -607.40594 618.63434 4.5567794
406.10461 -607.41925 618.94873 12.1
405.57004 -606.57733 618.22729 5.1749997
370.24347 -806.12042 619.9046 30
385.60681 -805.95496 619.10461 14
386.16327 -804.51709 619.19324 19.5
386.70505 -803.09613 619.29688 23.333334
370.22122 -802.54248 619.51373 11
369.31183 -801.49744 619.15784 30
387.33899 -801.75366 619.23438 40
369.78806 -800.50427 619.16815 26.666668
387.86017 -800.35138 619.53638 36
370.15936 -799.47162 619.33856 40
388.57007 -799.07025 619.42798 35
370.24097 -798.17651 619.19739 13
388.31226 -798.93036 619.58215 22.833334
369.93842 -797.89532 619.09412 12
370.9035 -797.50085 619.71826 22.5
388.68964 -797.49207 619.56976 31.5
389.0639 -797.66608 619.66138 43
371.34854 -796.59381 619.73639 24.5
389.34155 -796.18616 619.64709 26
371.66833 -795.61707 619.92767 24.666666
388.43497 -795.76361 619.97351 24
371.48785 -794.29755 619.52722 14
372.02814 -794.68011 619.87982 15
370.86987 -793.85956 619.09424 13
372.01794 -793.51868 619.85901 15
366.9798 -792.11255 619.37146 15
364.19733 -790.03442 619.04547 4
364.36322 -789.28503 619.05969 12
354.18042 -788.46783 619.54395 3.3333333
364.4122 -788.47241 619.06732 12.666667
353.69312 -787.17444 619.34851 18.549999
354.81079 -787.47266 619.7807 23.066666
364.6539 -787.63348 619.1676 9.0500002
364.52222 -786.9071 619.13458 4
355.68192 -783.43225 619.2923 3
354.9838 -782.50623 619.11786 3
355.29819 -782.73956 619.22693 9.5375004
353.26086 -781.89917 619.77209 3
351.09033 -780.92133 619.34595 3
345.33966 -779.7749 619.82642 8
342.01831 -778.3515 619.35413 4
406.25635 -624.51117 619.84106 17
406.53513 -623.495 619.63556 9.8888884
404.45193 -622.08374 619.18225 29.541668
405.61539 -622.46021 619.54736 16.519964
406.35486 -622.68604 619.38434 22.108036
407.2623 -622.43311 619.81232 29.444445
404.25131 -621.82977 619.26001 24
405.34528 -621.49719 619.20764 14.574286
406.93164 -621.47858 619.11792 29.125
407.56729 -621.47565 619.62451 21.918289
408.34204 -621.44385 619.76843 25.666666
404.48135 -620.76947 619.11353 17.50909
407.67792 -620.5755 619.40497 17.341969
408.28339 -620.10413 619.75287 15.333333
407.89236 -619.63043 619.19702 36.488888
408.56186 -619.40076 619.67645 30.135031
408.59714 -618.4848 619.34491 26.828108
409.1955 -618.31659 619.80493 27.360119
408.49615 -617.96222 619.02136 31.444445
404.63086 -611.18109 619.43488 8.1903648
405.12766 -611.2619 619.87 7.0835018
404.73987 -610.5722 619.29413 5.0129924
405.35437 -610.4939 619.75696 5.4408426
404.90274 -609.84283 619.13 1.8823529
405.56122 -609.50146 619.53094 4.6035252
406.18326 -609.21875 619.93488 2.9880953
405.68423 -608.44403 619.22009 3.7699888
406.28876 -608.49371 619.73596 2.2700217
405.91995 -607.59454 619.06183 4
406.37473 -607.59271 619.41821 5.1107225
371.04874 -807.24878 620.4541 22
370.15512 -806.04596 620.02783 40
370.66211 -804.85004 620.14215 49.333332
371.17081 -803.71222 620.26477 37
371.62057 -802.57031 620.4519 28.75
371.98981 -801.40149 620.71033 37.5
372.07727 -801.46631 620.58667 30
372.41449 -800.30896 620.88757 32
372.84784 -799.2384 620.91968 20.75
388.81 -797.51294 620.21716 36
389.27573 -796.1225 620.13336 26.5
371.59943 -795.57263 620.10492 14
372.70413 -795.15912 620.3429 16
373.17194 -795.48999 620.62622 8
386.87344 -795.05273 620.23315 22
387.5592 -795.35358 620.27582 23
388.48169 -795.76617 620.21478 25
372.797 -794.02631 620.30237 14
373.43524 -794.44135 620.7298 7
385.58911 -794.46521 620.42834 20
386.27039 -794.79254 620.13953 21
372.28165 -793.68579 620.38251 13
353.58936 -788.32288 620.44562 5.583333
353.15018 -787.04114 620.23267 17.049999
352.84534 -786.96985 620.72949 19
355.14883 -783.35175 620.60596 5.3333335
353.59937 -782.18579 620.62427 3
354.36017 -782.77216 620.98071 3
353.36548 -781.98724 620.02246 3
349.05746 -780.19629 620.1601 5
406.51569 -625.13074 620.18909 13.5
405.85602 -624.44141 620.43762 27.22143
406.25372 -624.77521 620.24677 14.405714
407.15143 -624.1001 620.44556 3.2857141
409.98788 -624.0979 620.96545 14
406.91791 -623.92877 620.13153 23.738094
407.53995 -623.3421 620.43738 41.204765
408.69946 -623.22076 620.92957 8.1111107
405.62418 -622.50922 620.10626 6.1999998
407.7128 -622.48511 620.2301 25.33889
408.48386 -622.46967 620.47003 17.152779
409.39365 -622.78009 620.81793 12.3125
407.65668 -621.10028 620.92749 15
408.66849 -621.5238 620.18115 21.440748
409.40286 -621.242 620.58557 24.922222
406.93396 -620.11536 620.90662 11
407.36359 -620.26782 620.49768 10.723333
409.63159 -620.70172 620.57465 31.245436
410.38 -620.07959 620.96954 25.5
406.93802 -619.94031 620.91821 8
407.55609 -619.85999 620.75055 11.2875
408.35281 -619.70862 620.54584 8.583333
409.42545 -619.32794 620.41992 15.929486
410.1485 -619.6825 620.91785 23.931818
409.69974 -618.54364 620.33478 23.697971
410.30527 -618.53125 620.849 22.237125
405.61273 -611.40009 620.32861 7.688005
406.15594 -611.43152 620.8006 8.2422962
405.91455 -610.70624 620.29565 6.1974564
406.33279 -610.41248 620.52606 6.9920206
406.6405 -609.53259 620.43585 6.2952209
407.02911 -609.51892 620.75159 5.5862069
406.81223 -608.66309 620.24249 4.4730163
407.45554 -608.41516 620.72455 2.6765428
407.1113 -607.89594 620.23462 3
371.8436 -808.37781 621.05255 24
372.57413 -807.3161 621.34729 17
372.30151 -806.99847 621.3222 50
372.79349 -805.71332 621.55817 36.5
373.34366 -804.50867 621.62988 37
372.63141 -803.70483 621.12823 23
373.77536 -803.26306 621.89941 34
373.74652 -800.0415 621.4726 11
390.89777 -800.18713 621.58179 14
391.00912 -800.24957 621.47504 14
390.25381 -799.85864 621.44159 13
373.28635 -798.21191 621.12994 32
373.6756 -797.16174 621.31836 21.333334
374.15622 -796.18787 621.33612 26
374.32245 -795.01807 621.35364 7
371.26819 -794.16748 621.57385 33
368.23822 -793.11853 621.2168 36
370.56351 -793.6731 621.59515 9.333333
370.71838 -792.63165 621.65588 11.25
371.24561 -792.97583 621.98615 6
370.82578 -791.58679 621.6543 13
371.08865 -791.74756 621.74713 9
352.65643 -788.15588 621.96619 4.25
353.06384 -788.24811 621.35773 4
354.36084 -787.53015 621.18665 24.8125
352.43652 -786.87659 621.39099 17.1875
353.96442 -783.30231 621.96991 8
354.65527 -783.26886 621.49152 8.333333
355.3912 -783.5575 621.2583 12
353.84628 -782.39746 621.32483 4.3333335
354.30493 -782.74268 621.31207 5.9499998
406.90997 -633.6524 621.81006 5.25
407.53354 -633.74762 621.44836 4.6666665
408.51309 -633.10223 621.63409 32
408.62561 -632.90717 621.8103 52
408.64465 -631.45532 621.95923 45
407.63779 -624.3761 621.64429 21.398611
408.48016 -624.05225 621.67273 53.777779
409.54562 -624.18665 621.04028 20.5
408.72568 -623.6474 621.54944 24.533333
409.78232 -623.76434 621.49225 14.174603
410.48312 -623.52216 621.52057 24.34568
411.29263 -623.18213 621.64471 18.412699
408.91125 -622.7489 621.24243 14.642857
409.46475 -622.44763 621.41937 8.8701296
411.82599 -622.87799 621.76605 14.166667
407.35703 -621.1449 621.51062 8.5
409.36383 -621.52728 621.89557 8
410.79309 -621.26837 621.80054 10
411.28378 -621.79974 621.65802 6
406.82837 -620.55536 621.70923 9.75
407.26538 -620.51392 621.76636 20.521429
408.53888 -620.39862 621.77228 13.675
410.43289 -620.48639 621.5177 16.931973
406.86417 -619.71716 621.2464 13.908333
407.50861 -619.39258 621.42133 11.130442
408.37473 -619.2453 621.23199 10.003788
409.12195 -619.17761 621.52332 10.416666
410.51782 -619.56384 621.41962 18.277813
411.13507 -619.1413 621.80988 20.555555
407.86053 -618.93988 621.87793 14.695652
408.57764 -618.83832 621.72546 10.641667
409.18561 -618.98035 621.36279 10.875
410.82138 -618.58105 621.31763 20.962122
411.25626 -618.47797 621.64459 19.729166
406.54138 -612.2533 621.45862 5.3799262
407.05875 -612.02167 621.86914 1
406.65109 -611.61908 621.29724 7.4636807
407.30569 -611.47266 621.79449 3.890779
406.86597 -610.69586 621.08514 6.9977531
407.4942 -610.49115 621.55359 5.7779026
407.52792 -609.54803 621.21393 4.4133983
408.16251 -609.50653 621.75714 2.4181287
407.89526 -608.49768 621.12531 1
408.27106 -608.57776 621.49664 1
373.50916 -808.54797 622.04529 18
374.66086 -807.99518 622.93976 25.5
374.33551 -802.16321 622.11755 23.25
374.7449 -800.94415 622.20428 24
375.23071 -799.82977 622.43359 23.25
375.58496 -798.63031 622.61884 27
376.07693 -797.54999 622.75812 28.5
376.38495 -796.35938 622.74237 8.5
376.70425 -795.19318 622.99078 30.333334
371.31033 -794.20221 622.04742 11
369.63342 -793.0274 622.45496 7
371.789 -793.33008 622.34784 10.5
372.51193 -793.80164 622.81396 7
370.02759 -792.15521 622.5401 6
371.80087 -792.17218 622.23328 9
372.36017 -792.5061 622.60535 15
371.46222 -791.96991 622.00989 9
354.38544 -789.83624 622.4502 3
352.27686 -788.08344 622.55621 5
353.70471 -787.39905 622.50873 19
354.48273 -787.67212 622.83136 32.566666
355.38394 -787.48987 622.42084 29.373333
351.76831 -786.73395 622.48083 18.638887
355.58655 -786.61273 622.80487 22.666666
353.66379 -783.13123 622.67273 4
354.70724 -783.28925 622.49194 4.25
349.54102 -780.84521 622.5473 5
406.44336 -633.20966 622.35449 42.238094
407.30246 -633.19336 622.35748 3
406.772 -632.79675 622.79352 42.299999
407.5899 -632.57349 622.7547 34.571426
408.30957 -632.68781 622.28082 34.678574
407.73535 -631.05664 622.9162 24.5
408.37878 -631.21301 622.4397 24.757143
407.77896 -630.97339 622.97845 40
408.43488 -630.8891 622.8175 26
406.96637 -624.15015 622.24896 38.333336
407.17059 -624.11853 622.19714 51.25
407.16669 -623.88403 622.54016 41.799999
408.56711 -623.56873 622.34705 65.233337
409.31924 -623.23846 622.34369 20.409723
410.29184 -623.15387 622.14746 27.666666
409.4928 -622.62646 622.52094 36.880955
410.58997 -622.76117 622.56372 29.378283
411.25253 -622.73956 622.18146 29.612122
409.39359 -621.46716 622.39038 12.008928
410.54996 -621.31445 622.41296 22.833332
411.19885 -621.51196 622.86194 37.321426
407.52237 -620.4978 622.50928 13.135864
408.80469 -620.68561 622.23737 12.222222
409.4407 -620.56903 622.55377 12.028571
410.81516 -620.67035 622.17987 21.714285
411.39737 -620.52618 622.62158 17.571428
407.92657 -619.93555 622.34253 11.75
408.44333 -619.48163 622.54767 12.54
409.22424 -619.65112 622.26306 14.25
411.48862 -619.53436 622.28522 23.227182
412.13623 -619.46552 622.81708 23.577383
408.40353 -618.64923 622.10187 9.6909084
411.85004 -618.37646 622.57031 13.417063
412.24286 -618.4231 622.6059 13.661212
412.17249 -617.86359 622.97723 18
407.16162 -616.1001 622.09705 1.75
407.62476 -615.45587 622.55255 3.1850879
407.80215 -611.16986 622.11621 1.1111112
408.43445 -611.44019 622.81421 1
408.4837 -610.64716 622.51392 1.0053213
408.78021 -609.79773 622.43475 0.65873015
409.22449 -609.4212 622.67188 1
408.88983 -608.64886 622.0816 1
409.27975 -608.66852 622.43396 1
375.15472 -813.16412 623.85779 20
376.14056 -809.78455 623.93896 19
375.21579 -806.64337 623.07343 44.5
375.56964 -805.14722 623.18518 19
376.22342 -804.00568 623.49719 43
376.73724 -802.74866 623.698 28
