# .PCD v0.7 - Point Cloud Data file format
VERSION 0.7
FIELDS x y z intensity
SIZE 4 4 4 4
TYPE F F F F
COUNT 1 1 1 1
WIDTH 1287
HEIGHT 1
VIEWPOINT 0 0 0 1 0 0 0
POINTS 1287
DATA ascii
-3.893779 4.4688139 -0.40033597 38.146969
38.625721 4.3307176 -0.41861677 15
40.728085 4.4242845 -0.43563151 17
-3.5504272 5.2265501 -0.52499264 13.498049
-2.6429102 5.705709 -0.53134406 9.0336542
-13.323414 6.8938093 -0.16366535 8
-2.1332231 6.0123968 -0.22319184 5.5999999
-1.8297937 6.1493297 -0.5173409 4.5322914
31.912579 6.9546199 -0.47339678 34
32.102051 6.6749272 -0.46489739 23
-16.497442 7.459404 -0.76520044 3
-15.584964 7.4077978 -0.45697576 3.375
-14.39406 7.2196283 -0.16142982 4.5
-13.256274 7.5265055 -0.20869374 7.9499998
-12.474366 7.8824081 -0.25268218 6.5
-10.490826 7.3157673 -0.26231956 3.6666665
-9.4612036 7.7647986 -0.32439619 5.4375
-2.0817623 7.87327 -0.051504076 1
-1.624992 7.3358798 -0.070399947 3.5
31.744709 7.3393192 -0.48548079 31.25
32.005383 7.8588886 -0.50519085 11
38.252331 7.6823826 -0.54427695 15
-14.223663 8.6178684 -0.84455687 6.416667
-13.771189 8.8492031 -0.86325622 9.3571434
-13.080544 9.2145739 -0.89462245 5
-12.497429 9.5290442 -0.92430568 3.7777777
-11.79208 9.8948746 -0.96099859 3.8
-5.7611327 9.6413422 -0.60939068 5
-2.7299418 9.280508 -0.040711544 8
-11.593542 10.010191 -0.97312313 4
-7.4053288 10.539847 -0.62139368 3
-6.6957202 10.845654 -0.67651582 3
-3.7008548 10.766744 -0.80691427 9
43.436115 10.816702 -0.69072223 42
-6.4424276 11.03495 -0.70387518 3
-5.4696355 11.392392 -0.77882481 10.87755
-4.4652719 11.379409 -0.82530987 4.5
-3.0379066 11.178971 -0.88001114 3
43.135216 11.171202 -0.70023239 30.5
-4.5120535 12.247955 -0.90280974 7.5625
-3.707201 12.784286 -0.99386597 3
53.415981 14.608587 -0.89253557 26
53.318954 15.219312 -0.91137767 26
52.642963 16.662796 -0.95063066 26
51.659279 17.752834 -0.97447169 39.5
52.449497 17.128828 -0.96308899 26
50.921017 18.777407 -0.99707055 53
51.141403 18.425262 -0.98917031 53
67.471931 -109.18166 0.74322617 11
67.090126 -108.98843 0.81307852 11
70.134682 -108.10054 0.23900044 9
73.628899 -105.35938 0.91341543 25.166666
68.429802 -104.28354 0.48178732 8
70.631424 -104.22142 0.077877641 8
72.714859 -104.24382 0.99663937 36
73.070564 -104.78452 0.96898186 27.5
70.595154 -102.35737 0.049187064 29
69.694984 -101.34643 0.19504106 24.5
70.19928 -101.73834 0.10903394 30
68.953651 -100.22203 0.31720746 26
68.423203 -99.732452 0.41456741 12.25
67.923447 -98.213234 0.49579704 35
68.108742 -98.492607 0.46118081 30
66.822525 -97.228241 0.71933985 11.625
67.455444 -97.515457 0.58611375 33.166664
66.421089 -96.319489 0.80096942 18.833334
59.700726 -95.317078 0.21312311 14
65.572937 -95.601936 0.47423649 7.75
66.148743 -95.889465 0.85979831 25.75
59.522877 -94.785797 0.29576242 28
64.852943 -94.345177 0.14984429 38.166664
65.335236 -94.737831 0.53212774 12
64.300201 -93.511345 0.30541146 29.6875
61.664661 -92.073593 0.0076349974 8
63.590546 -92.595146 0.50782144 8.583333
47.395176 -91.898788 0.9961406 21
62.804031 -91.259949 0.75624979 10.5
63.113991 -91.77742 0.65751469 9
48.964119 -90.943672 0.80772889 10
49.736759 -90.535255 0.70516908 9
50.300159 -90.30455 0.62201273 9
61.872128 -90.365334 0.093527876 34.666668
62.470997 -90.522705 0.87514973 25.833334
51.912273 -89.250023 0.44035733 17
52.383003 -89.122124 0.3589412 16
60.713875 -89.276634 0.46376279 8.0625
61.422523 -89.602615 0.26349837 34.0625
52.818031 -88.890457 0.30173802 16
53.456398 -88.54657 0.21847534 15.5
54.094234 -88.194679 0.13663805 15
58.849953 -88.834946 0.97277486 5
60.355469 -88.445541 0.62600708 21.939999
54.488842 -87.974686 0.086275935 14
55.257912 -87.849075 0.97513044 15
58.945778 -87.270157 0.17367828 4
59.409576 -87.541054 0.48798716 4.2777777
58.955055 -86.287918 0.29385543 36.400002
59.253483 -86.688599 0.39621964 32.75
58.417522 -85.614166 0.50785863 26.5
41.913403 -83.163239 0.97408736 22
42.03006 -83.459473 0.89483011 22
48.333168 -80.195175 0.54994988 15
50.090725 -79.117432 0.48817158 21
53.100533 -77.610855 0.31290811 21.75
55.631161 -76.349968 0.16402499 19.333334
56.37133 -76.2173 0.84879053 18.5
56.228031 -75.858437 0.68497723 19.666666
58.732857 -74.454132 0.053315282 21
59.197769 -74.495735 0.62992531 28.5
61.412777 -73.491646 0.58691257 12.333333
62.234467 -73.127792 0.66342646 17.333334
61.939064 -72.563034 0.46997595 34
62.385376 -72.771111 0.61173916 20.222223
63.802883 -71.229607 0.60164499 2.5
64.67923 -71.393707 0.21133864 25.481482
65.286667 -71.382515 0.64292145 21.189816
63.994186 -70.058556 0.10598433 27.799999
64.617218 -70.569778 0.53074712 32.38501
64.378647 -69.904793 0.74045002 40.645836
72.607903 -68.480949 0.091148578 6.0999999
62.345825 -67.298027 0.66595799 28.82222
72.285408 -67.540939 0.13014731 5.1865082
74.818352 -65.487907 0.2624298 5.1128063
75.460594 -65.187981 0.32838875 5.2012615
76.470085 -65.359001 0.18728402 8.4125528
77.089592 -65.625084 0.013116241 13.705465
74.762924 -64.82164 0.44223398 8.5
75.560555 -64.57029 0.48144665 6.1588602
76.461166 -64.633675 0.22531804 8.0537863
77.068398 -64.420364 0.056224227 11.932142
58.692764 -63.06118 0.52466071 4
59.762196 -63.526165 0.36189806 4
60.058411 -63.555645 0.97171199 3
73.615631 -63.462677 0.86684597 3.875
74.121696 -63.050945 0.65804672 10.857143
75.318939 -63.308086 0.43735781 2.9688988
76.598801 -63.525738 0.33949491 11.377651
77.131111 -63.17802 0.063158274 15.4
58.511307 -62.473541 0.519961 4.25
59.174374 -62.528229 0.65321201 4
73.213928 -62.933582 0.99985421 7.5
74.66745 -62.644253 0.45610604 5.4097219
75.479774 -62.367115 0.55094838 6.333838
76.872147 -62.749989 0.21753757 12.952381
77.169907 -62.320732 0.08408916 10.4375
57.991177 -61.575165 0.95177376 4
58.447945 -61.709816 0.61809856 4.4000001
74.271339 -61.071888 0.96273243 2
75.436783 -61.96983 0.19294345 1.5
76.48761 -61.588898 0.23105721 6.6180558
77.24427 -61.335648 0.072422504 10.607143
57.66938 -60.536804 0.49889958 5
73.389778 -60.242485 0.42415109 9.0404758
74.552505 -60.050613 0.58742583 2.5
76.403214 -60.492241 0.52599782 6.75
77.070267 -60.965694 0.17511749 10
57.542763 -59.370949 0.64205134 15.8
58.111794 -59.300102 0.43836582 23.25
70.933052 -59.64505 0.52348387 100
71.434052 -59.384109 0.55815321 73.554543
72.610191 -59.405689 0.6610564 42.770454
73.662994 -59.562424 0.56237531 13.47446
74.233047 -59.410385 0.55189478 8.1875
75.361176 -59.241272 0.48677334 7.6388888
76.386559 -59.481754 0.58384103 8.916667
77.170105 -59.49028 0.17826265 9.166666
57.591446 -58.570744 0.21863312 20.083334
58.073402 -58.882114 0.91081202 15.6
72.34874 -58.944019 0.60886163 63.599998
73.873436 -58.37022 0.63556677 47.666668
75.800934 -58.1959 0.93567359 7
76.671066 -58.374603 0.36238265 6.0999999
56.846443 -57.354568 0.47662568 27.5
57.133125 -57.849632 0.37157166 26.333334
74.538101 -57.720402 0.50153017 41.984184
75.687729 -57.158508 0.55369157 6.5
76.392601 -57.41761 0.65934157 11
56.7118 -56.871834 0.58202064 33
57.141003 -56.660316 0.63895738 32.75
75.868919 -56.980988 0.36267757 5
76.083397 -56.914993 0.64288932 5
76.399887 -55.071507 0.63648117 9
76.304214 -54.784985 0.69128168 11
62.410633 -53.742176 0.58497584 9
63.19899 -53.370895 0.66655242 9
63.774857 -52.966698 0.3840239 8.5
64.737686 -52.439678 0.60379863 8.666667
65.265198 -52.326004 0.86474144 16.200001
73.733536 -51.03907 0.21659207 26
74.592674 -51.12104 0.78705674 23.419048
75.902237 -51.482803 0.64974368 24
76.070053 -51.710205 0.60767257 20
73.811401 -50.960278 0.43169257 26.4
74.188416 -50.845554 0.52896762 27
75.82119 -50.241905 0.16078866 18
74.414818 -49.456287 0.32832038 33.84444
75.378525 -49.448959 0.26651174 17.75
75.404411 -48.889462 0.31749034 18.333334
7.3316269 -25.051882 0.69792825 23
6.8174753 -24.204617 0.69490677 7
7.1139526 -24.781555 0.70113379 26.5
-6.2942009 -23.795195 0.85326988 5
-5.6137962 -23.225317 0.79447412 5
5.7343268 -23.194546 0.7280134 16
6.3221774 -23.509489 0.69821709 8.5
-5.0945611 -22.788424 0.74937868 5
-4.9580679 -22.727772 0.73830855 5
2.5118213 -22.440516 0.94251472 12.35
3.0646949 -22.173676 0.88539505 17
4.5100317 -22.141251 0.77024746 19.875
5.3036175 -22.771776 0.74017084 17.5
1.8288857 -21.641397 0.95582432 18.833334
3.507658 -21.736145 0.82833338 15.5
-2.5531428 -20.63402 0.52492785 4
0.94166458 -18.052166 0.2098324 3
1.575042 -17.638912 0.1515305 3
2.4082448 -17.217598 0.075852573 3
-6.3264742 -15.177089 0.13102436 3
-5.7825336 -15.036446 0.10283288 3
-5.1845098 -14.858212 0.071181931 3
-4.3851981 -14.668574 0.02640599 3
-3.972472 -14.569018 0.002525568 3
-18.886534 -12.508021 0.61477768 29.999998
14.869233 -12.092238 0.69241256 5
-21.482346 -11.006802 0.66067231 49.25
-20.244408 -11.691563 0.6405881 13.5
-19.382624 -11.792504 0.62036824 12.1
-18.964989 -11.94953 0.61144948 30
3.7541907 -11.235196 0.41726288 45.200001
14.667583 -11.488173 0.6486122 5
-27.225042 -10.866355 0.78350461 12
-22.279785 -10.408924 0.66909754 22.75
-21.569418 -10.822821 0.65986836 47.5
-20.553854 -10.977885 0.63861418 27.666666
-19.227219 -10.598988 0.60191101 30.5
4.4900627 -10.732914 0.39945281 44.013824
5.4827814 -10.257353 0.54561961 40.613533
6.001843 -10.013004 0.044586718 43.625
12.706836 -10.271088 0.014746189 4
13.876876 -10.211761 0.56288344 5
14.258167 -10.809466 0.6027438 5
-22.797609 -9.7101517 0.66791838 29.924999
-19.457031 -9.1457405 0.58534628 28.083334
-13.202004 -9.1449127 0.61882091 18.5
-12.306193 -9.30515 0.76886559 83.566666
6.3859754 -9.8344297 0.41892725 38.520832
7.1114163 -9.4943752 0.35261512 44
13.343955 -9.3788986 0.50770861 6.6666665
-22.420774 -8.3799 0.63341606 64
-12.162071 -8.7360926 0.66268301 21.533333
6.507071 -8.2093287 0.43282294 13.6
8.2596903 -8.5516777 0.42853796 33.5
-21.326712 -7.3554959 0.58880603 11.333334
-20.651491 -7.4799943 0.57825816 10
-19.715189 -7.5470452 0.5607447 30.111113
-9.085165 -7.0402727 0.50318038 22.75
-8.3067894 -7.3327942 0.47386375 52.556664
-7.7094002 -7.4024773 0.44785473 26.25
6.3328791 -7.7974992 0.47608072 15.4
7.4807587 -7.3940659 0.39297608 12.25
-23.512623 -6.3154402 0.60457814 91
-22.120399 -6.3892446 0.5806222 13
-19.56266 -6.0468574 0.52353275 30.666666
-8.1829844 -6.6802683 0.43301472 32.950397
-7.9817967 -6.8016806 0.63569814 23
7.3362489 -6.5198736 0.46572688 21.476692
-19.688688 -5.8479748 0.52092695 21
-5.1812363 -5.0720973 0.30167168 40.666668
-4.6158171 -5.135653 0.66219103 11.140531
-3.2458134 -5.2561135 0.65826118 12.166176
-2.9687083 -5.1045265 0.1900164 10
-19.802723 -4.1747727 0.47659314 40.958336
-18.830103 -4.5778294 0.47094271 22.733332
-4.2095385 -4.6925278 0.36267018 12.779167
-3.5078251 -4.6103621 0.39087084 22.68074
-2.9609966 -4.8500757 0.23786494 18.5
-16.13183 -3.0334096 0.37698716 23.75
19.500412 -3.1150947 0.21304491 13.333334
-19.217648 -2.7358966 0.42059994 3
-16.324541 -2.1984794 0.73750418 3
-15.38084 -2.6501746 0.35174763 16.285713
3.1438365 -2.0848362 0.21161981 17.133928
19.688395 -2.9090962 0.72493637 29
20.378468 -2.5551496 0.41693759 27.357143
21.18865 -2.0360248 0.7176851 32.75
-16.182903 -1.5971022 0.56730479 22.861113
-15.994654 -1.5665836 0.88724554 31.299999
2.9058533 -1.563567 0.10549036 34.109718
3.2619677 -1.4512643 0.50903744 13.100618
21.516306 -1.8543911 0.71692926 29.5
-17.155937 -0.41199338 0.5999217 3
-16.535187 -0.7694571 0.73807448 3.5
-15.369287 -0.75600654 0.55357033 5.625
-14.561429 -0.34890172 0.50934458 5.25
-12.203739 -0.12493221 0.34951481 5
3.7903728 -0.83142829 0.52204514 8.7529745
4.0787506 -0.66441345 0.42450905 4.6818781
19.757013 -0.31163135 0.58746773 23.833334
23.505152 -0.7015335 0.7149635 29.444445
-12.193852 0.44553337 0.39544991 24.491072
-11.930299 0.59029084 0.54297179 21.964947
19.427256 0.44731975 0.54299235 26.25
-12.121001 1.2580175 0.6769852 5.25
-11.3836 1.3583616 0.5294255 5.4375
-10.513599 1.7371417 0.46470529 5.625
-9.8918695 1.9815553 0.069097638 6
-8.2290468 1.9157952 0.44613394 8.7857141
7.7363467 1.3016006 0.55096716 25.435097
8.0399837 1.6606336 0.60203475 2
26.765371 1.2002382 0.72230005 24
27.456491 1.6176549 0.72471637 33.666668
28.057474 1.9700595 0.72757173 26
-20.781885 2.882081 0.21109354 4
-19.104839 2.7562814 0.864003 4
-11.932867 2.2134058 0.94310713 3.875
-9.8971376 2.0453942 0.53785676 4.3333335
-8.2018251 2.6395886 0.47948489 22.969444
-7.9359856 2.3403211 0.34831122 11.332559
28.63175 2.3064611 0.73080575 27
29.512077 2.814729 0.7362721 28.333334
-20.3416 3.311487 0.181844 6.4444447
-19.36591 3.3429749 0.50421172 4
-18.759995 3.9899831 0.11866212 3
-8.4029961 3.4773211 0.59097379 7.125
-7.367424 3.3442464 0.50846553 4.7239056
-6.5358973 3.747931 0.45095605 5.7983332
-5.7466602 3.9694791 0.96595836 34.9375
-4.2444053 3.9732356 0.32655862 32
29.974918 3.0818827 0.73935437 29
30.290672 3.2725961 0.74124384 30
-18.701147 4.0735631 0.11310875 3
-8.6532497 4.446444 0.64719808 5.4099998
-5.5228243 4.234025 0.35896048 9.7296715
-4.2932715 4.5047526 0.596178 32.82922
-3.8606858 4.412055 0.5189057 36.525612
38.675411 4.3803105 0.93898582 23
-9.274725 5.6261082 0.58878404 4
-8.5802212 5.4854832 0.70526916 4.5625
-7.6012821 5.5655832 0.78213179 5.0961537
-3.3498247 5.3199363 0.40961882 24.861317
-2.5274825 5.7429862 0.46454462 27.675632
-8.4285765 6.2048073 0.49840108 7.3227515
-7.7951255 6.5899792 0.43315083 8.583334
-6.9145222 6.0635152 0.70034677 6.6666665
-4.3914561 6.3143258 0.30021217 7.6700678
-2.3152771 6.1309991 0.24020563 3
-1.4588474 6.4137664 0.47163746 25.443481
-0.5349915 6.5265565 0.77178192 13.865151
32.162781 6.767128 0.67942071 17
-5.1923251 7.630372 0.34756124 6.3571429
-4.4765263 7.6541605 0.4449833 5.2884617
-3.5157731 7.8056188 0.3562603 7.5
-2.5310044 7.8030744 0.19902188 9.625
-1.3097478 7.0201201 0.039548814 5.5
31.775677 7.5181198 0.64865351 30.6
32.003433 7.0229502 0.66801405 43
37.771889 7.754077 0.80343997 23
-5.0349388 8.0566645 0.16596113 8
-4.3708572 8.403986 0.10495745 10.843435
-3.4197814 8.4158335 0.23988523 6.1515155
-2.4015098 8.6980438 0.2667464 5
-1.9442736 8.913475 0.23165062 5
-3.2459097 9.0072184 0.004118491 7.5
38.166443 9.669919 0.7626884 23
52.74221 16.760553 0.97817183 100
53.016975 16.262159 0.99515009 100
52.327999 17.452606 0.95478964 100
50.995697 18.926252 0.89749432 48
51.350117 18.341763 0.91546142 48.625
52.022789 18.003752 0.93733597 100
50.863754 19.176764 0.8905158 48
72.559204 -104.0285 1.010306 35.5
71.919998 -103.04265 1.063687 33.333332
72.22818 -103.51928 1.0375541 31.333334
68.19017 -102.98827 1.7665344 17
71.645737 -102.53802 1.0834044 32.333332
70.584785 -101.46236 1.2183447 27.200001
71.211754 -101.79413 1.1203299 30.666666
69.588669 -100.13455 1.3411518 28
68.512337 -99.885773 1.5484639 14
69.287781 -99.892746 1.3892828 20.25
68.535172 -98.162987 1.461267 24.111113
67.736702 -97.344139 1.5978166 18.916666
68.246803 -97.708237 1.5019127 23
66.960678 -96.282265 1.7291919 25
66.537956 -95.797012 1.8098729 15.375
42.48658 -94.537109 1.6420072 14
65.577141 -94.20182 1.3179725 33.583332
66.097961 -94.396164 1.8647827 24
64.743782 -93.373024 1.1902903 28.555557
65.374954 -93.721405 1.5277164 33.5
63.880806 -92.178055 1.4161233 27.75
64.138008 -92.870537 1.3446066 4
49.199482 -91.252502 1.9909168 17
59.070305 -91.037529 1.741871 17
63.475136 -91.518509 1.5296715 10.45
49.789345 -90.908455 1.8931257 16
50.611679 -90.45282 1.7559162 15
51.349632 -90.049881 1.6301981 14
62.8251 -90.045731 1.7276214 35.200001
63.088333 -90.61245 1.6452831 20.25
51.84549 -89.76416 1.5476521 14
52.629662 -89.302002 1.4188139 16
53.190025 -89.023941 1.3198739 12
60.771523 -89.441895 1.3775185 6
61.515877 -89.378242 1.1829349 17.733334
62.296799 -89.498383 1.655126 26.5
53.609535 -88.793419 1.2488383 11
54.460125 -88.296875 1.1085957 15.666667
55.333527 -88.074104 1.9709455 18
60.876335 -88.171799 1.4258077 29.166668
61.004063 -88.82077 1.3515455 4
55.73204 -87.843567 1.8888224 17
60.504772 -87.903641 1.5450603 15.2
59.658554 -86.231743 1.3079524 37.355556
60.13768 -86.501518 1.7461953 46.25
58.599823 -85.406601 1.3803077 10.5
59.344788 -85.685814 1.4444171 32.533333
46.731171 -81.40416 1.7300535 18
47.951324 -80.655594 1.636089 24
50.769707 -79.067368 1.3922516 30
53.731293 -77.791 1.5045894 8.5
54.263802 -77.300278 1.399846 20.9
56.893982 -76.108963 1.5311054 19.5
56.773178 -75.781158 1.6187062 19
59.644814 -74.675995 1.490034 20
60.406246 -74.230148 1.3836011 14.375
60.862103 -73.871834 1.2309456 16.533333
62.58567 -73.151337 1.3007232 16
60.94973 -72.94886 1.4767302 9.5
61.375439 -72.776047 1.3972672 9
62.782543 -72.746208 1.584949 23.799999
63.004791 -72.919754 1.7590009 20
64.587662 -71.104218 1.4762876 2.75
65.750839 -71.390503 1.4527463 19.654039
66.272545 -71.332542 1.7800814 17.111113
64.848511 -70.551544 1.1688864 17.3125
65.312782 -70.614624 1.5453001 19.501482
66.323746 -70.920715 1.8999497 18.714287
64.667496 -69.624451 1.3968623 26.577381
65.0298 -69.77137 1.7101575 29.888889
62.834316 -67.191223 1.3732828 37.857143
63.105614 -67.056877 1.8501126 20.4
62.720444 -66.960487 1.4431182 28
63.021877 -66.903648 1.9022418 27
61.927357 -64.016312 1.8484243 14.4
74.862305 -64.076317 1.2072071 9.5384617
75.20636 -64.2995 1.0278746 10
60.142323 -63.354694 1.657527 3.3333335
61.749645 -63.680622 1.9776446 15.6
73.762039 -63.434662 1.3935975 3.9083333
74.427841 -63.283947 1.3728211 6.7949996
75.148773 -63.61908 1.0784959 5.9000001
56.580406 -62.196186 1.5959265 4
59.650463 -62.598492 1.7120457 3
71.329132 -62.45013 1.7677575 16.166666
73.643913 -62.52766 1.8612062 6.7222228
74.552887 -62.571075 1.3292285 6.2777772
75.330658 -62.27803 1.0091106 11.5
56.183811 -61.491623 1.8235117 4
57.783432 -61.124481 1.0804397 4
58.586479 -61.141266 1.4003674 4
59.025513 -61.758018 1.5535315 3.3333333
71.485313 -61.919453 1.9577826 3
72.379456 -61.486485 1.6594427 5.7500005
73.247208 -61.440849 1.8123384 5.4166665
74.396912 -61.437733 1.5321554 2
75.269875 -61.309692 1.0935503 8.1388884
57.693447 -60.57478 1.231257 4.5
58.264328 -60.560608 1.5775012 4
72.191605 -60.664047 1.6320738 13
73.768791 -60.34111 1.4632006 4.1333332
74.377304 -60.648193 1.3026478 7
75.337387 -60.350624 1.095382 5.25
56.954662 -59.318626 1.5933145 5
57.6315 -59.689819 1.4698532 9.5
58.251434 -59.165234 1.5866247 28.933334
71.55677 -59.591988 1.4322701 96.209091
72.342636 -59.198189 1.5211358 86.356812
73.285904 -59.605743 1.2863218 8.1833324
74.595116 -59.483242 1.4306062 7.9000001
75.023109 -59.884567 1.2680064 10.333333
58.464001 -58.837631 1.6653543 13.75
72.784691 -58.885662 1.5090495 41.125
73.598267 -58.580879 1.3911958 33
74.449326 -58.067059 1.472658 26
56.080269 -57.34565 1.3001972 7
74.413895 -57.956696 1.0966376 17.766666
75.465515 -57.579941 1.1079757 5.875
56.970711 -56.959949 1.3881155 6
60.01123 -55.316483 1.7450591 6
60.609726 -54.937279 1.4417578 7
61.600006 -54.443954 1.4210429 6.6666665
62.517681 -54.129051 1.9701874 10.25
75.413841 -54.631142 1.2945285 5
62.784256 -53.834774 1.5420169 12.333333
63.631493 -53.330917 1.3975581 7
64.197372 -53.099133 1.4390038 19.833332
64.747856 -52.827599 1.4860877 14
65.229912 -52.52055 1.5381941 7.9333329
74.603065 -52.246288 1.2333777 9.6499996
75.117378 -52.377338 1.1764674 9
69.477989 -51.945808 1.5421101 42.5
63.994175 -50.299843 1.9664537 9
64.134232 -50.368835 1.9517533 9
-17.226576 -30.740576 1.725612 10
-16.389246 -30.323889 1.6626282 19
-15.927391 -30.069296 1.6273234 19
-15.459931 -29.845407 1.5921408 19.833334
-14.519823 -29.451298 1.5221833 14.125
-13.887831 -29.36809 1.4783373 8
5.8472719 -28.25069 1.9890344 18.5
-7.2284946 -27.241558 1.967203 33
5.4202747 -27.444828 1.9510225 13.5
6.739563 -27.164421 1.8338201 18
-6.4197421 -26.847235 1.8816266 33.333332
-5.5125408 -26.41543 1.786234 33.041668
-4.894412 -26.11153 1.7208279 32
4.8787899 -26.344936 1.8961954 16.75
5.1532378 -26.923708 1.9258013 17
-4.3149476 -25.837969 1.6601835 31.25
-3.5013695 -25.441074 1.5745317 30.25
-2.8964598 -25.150389 1.5112028 29.25
4.5396724 -25.626675 1.8593984 16
-2.3319764 -24.878035 1.4520557 28.75
-1.6574259 -24.556885 1.381694 24.5
-0.49104768 -24.013908 1.2608973 20
-0.22393745 -23.872437 1.2324231 22.5
0.80656296 -23.339052 1.9447405 21
1.4757891 -23.499193 1.9063953 38.5
-0.6365943 -22.041939 1.17219 15.333334
0.41444415 -22.229067 1.2551658 16.74
2.3828235 -22.590603 1.7590545 26.466667
3.6002891 -22.24873 1.6392128 18.233334
-1.072957 -21.766909 1.1930286 21.5
-0.83488709 -21.771967 1.4304019 18.833334
0.12352505 -21.82382 1.868367 19
1.1665316 -21.843266 1.0185454 20.5
-27.726822 -12.301018 1.8824908 18
-20.361307 -12.43533 1.4868342 46.333332
-19.4723 -12.33982 1.4349318 18.666666
-18.879328 -12.528054 1.4074072 24.444443
14.869118 -12.035659 1.3594369 7
-21.423317 -11.037378 1.5027874 52.200001
-20.615473 -11.878293 1.4842747 40.5
5.7146072 -11.648582 1.0593176 5
7.1931758 -11.211326 1.4203048 21
14.682425 -11.441117 1.5157776 7.1666665
-22.535027 -10.118423 1.5338938 11
-21.322449 -10.468613 1.4796612 43.291664
-19.283144 -10.511783 1.3703185 22.666666
-12.720726 -10.049359 1.5619911 38
4.5673256 -10.750256 1.0112681 28.333334
5.3979015 -10.477222 1.3582935 6
13.878422 -10.145398 1.3617939 7.5555558
14.18015 -10.603372 1.6762457 8.5
-22.797318 -9.7237806 1.5352018 11
-19.41901 -9.1036882 1.3340402 21.875
-13.33876 -9.3815966 1.3897923 9.666667
-12.261055 -9.2928143 1.4865606 100
-10.242138 -9.5178776 1.8212892 7.5
-9.6357288 -9.1457624 1.5380372 11.566667
13.508723 -9.5467892 1.3463408 11.880952
-23.077129 -8.5194159 1.5101756 15.5
-22.339998 -8.3349361 1.4648709 28.75
-21.320992 -8.4911022 1.4159665 10.875
-9.1241159 -8.8779573 1.4258204 13.333334
-8.4426203 -8.5545959 1.4109811 14.208333
-7.7749786 -8.2700033 1.464313 25.858875
6.6261673 -8.1657305 1.3918425 18
12.920033 -8.6308975 1.0026588 5
13.123726 -8.9189453 1.312887 10
-22.778423 -7.5899582 1.4626384 99.75
-20.953932 -7.572278 1.3657186 5
-8.313571 -7.2204461 1.4429528 34.249283
-7.8191552 -7.9674959 1.8402243 15
6.5300045 -7.9002271 1.5338259 17.361111
7.5237603 -7.2422595 1.4967409 20.857143
12.245457 -7.4913788 1.7305454 24.486111
-23.500904 -6.2557197 1.4534788 90.083336
-22.042656 -6.5048981 1.386045 23.222221
-21.974243 -6.6453066 1.3874761 18
7.3400064 -6.4322996 1.3970739 25.129959
12.898978 -6.7726154 1.862399 30
13.381515 -6.482337 1.868031 32.799999
-23.2953 -5.6253419 1.419889 26.416668
-4.5768542 -5.0939498 1.5632689 6.6111112
-3.3830147 -5.3295465 1.1847705 12.620833
-20.200384 -4.0934858 1.2021964 13
-19.645971 -4.3791614 1.536899 31.041666
-4.2074332 -4.9492521 1.5548309 16.955357
-3.5352147 -4.76688 1.5948832 27.70587
-20.095715 -3.4032574 1.6185496 29.311607
-19.83486 -3.9606681 1.5320864 45.625
19.362249 -3.032527 1.4103796 31.5
-20.424553 -2.8560517 1.5278628 4
-19.451527 -2.7205946 1.4569855 6
-16.302279 -2.0890129 1.5009526 4
19.72588 -2.7981055 1.4180174 53.5
20.468145 -2.364958 1.4378711 47.958332
-16.178974 -1.590971 1.4687254 31.200001
-15.920577 -1.3531412 1.6227217 32.111111
21.377069 -1.8307166 1.4637054 38
-16.404982 -0.60477227 1.4461818 7.6666665
-15.300797 -0.73540676 1.6793827 10.2
-14.487699 -0.34410706 1.5754604 10.6
-13.895836 -0.1282787 1.6996229 16
-12.301574 -0.049895748 1.3569708 5
19.779856 -0.17577927 1.5069208 42.666668
23.566494 -0.55369371 1.5352819 30.5
-12.194323 0.43488824 1.5042379 17.645298
-11.903687 0.42176843 1.5930774 20.347918
19.474192 0.51366556 1.5357178 34.984848
-12.690943 1.4526099 1.0391148 6
-11.426346 1.1166229 1.552386 22.5625
-10.59737 1.5317819 1.5399096 26.541222
-9.8167877 1.9279047 1.4239807 28.715279
7.7680693 1.3857255 1.3248127 20.240477
8.0114708 1.7405998 1.3259155 4
26.828201 1.3643141 1.6576509 37
27.487946 1.7596194 1.6840668 37.666668
-13.284483 2.81183 1.0362337 4.125
-9.5048285 2.1047895 1.5172557 32.880951
-8.1785107 2.3068376 1.5231735 15.876032
-7.9022856 2.528584 1.566365 14.49475
27.973867 2.0417521 1.7041435 39
28.508226 2.3602979 1.7264704 37.166668
29.300644 2.8255634 1.7601439 27
-7.41958 3.1179433 1.4717351 27.269125
-6.5096569 3.5782051 1.4281484 27.413649
-5.8504601 3.8996851 1.5731159 26.916666
29.859135 3.1514707 1.784313 27.5
30.281698 3.4064159 1.8025385 28
-5.4162984 4.1507792 1.4936563 30.649008
-4.3441048 4.4159517 1.3804032 28.794575
-3.8983533 4.4983354 1.4147694 25.339968
-4.1259151 5.0237994 1.8209816 28.200001
-3.4281313 5.4058366 1.5146482 33.698814
-2.4619024 5.6753116 1.211253 41.562641
-2.5640693 6.2186623 1.714427 9.3148146
-1.5287684 6.5390491 1.5325296 22.276905
-0.45900947 6.5711298 1.3241712 20.946367
0.32840866 6.6416473 1.399547 7.8701296
21.510506 6.7414031 1.9801891 26
32.307663 6.7673903 1.8380055 32
-1.0773522 7.0337877 1.6721661 6.9375
0.34293643 7.3136201 1.4797907 11.628572
20.886023 7.8123612 1.9286069 41
21.221525 7.2327332 1.9551449 37
31.797173 7.683392 1.7890514 37.666668
32.130405 7.0762701 1.8207846 39.75
20.626268 8.260725 1.9105126 42.444443
32.028915 8.0256987 1.7970786 32
54.08263 13.702754 1.0807085 52
53.632523 14.413811 1.0517771 51.25
53.375271 15.439274 1.0217849 83.666664
63.975624 -94.394676 2.4135027 10
63.957253 -93.637177 2.398623 10
64.781891 -93.295212 2.1679401 9
65.213379 -93.315392 2.054857 26.75
47.343349 -92.227005 2.3134639 9.5
64.377594 -92.316292 2.2515771 17.5
47.984158 -91.944794 2.1946464 18
48.621895 -91.572891 2.0888076 18
63.533417 -91.087227 2.4634151 8
64.161278 -91.803848 2.2996292 23
51.707684 -90.148964 2.7246027 15
58.220154 -90.077751 2.0394011 12.5
63.530209 -90.590019 2.4553409 18
52.408295 -89.744797 2.5788603 14
53.201496 -89.25824 2.41746 17.5
57.879501 -89.480408 2.175817 20
58.026844 -89.734146 2.1167746 16.25
62.705368 -89.276398 2.6866007 19.799999
63.187874 -89.769691 2.5456247 28.6
53.75296 -88.975845 2.2992325 13
54.548828 -88.523285 2.1336067 14.333333
55.546265 -88.247849 2.9465322 16
61.778923 -88.298447 2.426934 15.62
56.24115 -87.844116 2.7741277 15
60.868454 -87.068909 2.3864012 10
61.371044 -87.661255 2.5078952 15.355556
60.584827 -86.372597 2.5036805 30.1
59.447289 -85.306709 2.3847852 18.880001
60.220856 -85.665527 2.6514623 34.022221
40.070389 -84.915131 2.3535311 16.5
42.434349 -83.481232 2.1680329 28.75
45.837208 -82.212082 2.9693847 18
48.641464 -80.528824 2.6285043 29
51.428261 -79.117294 2.2433543 26
52.771851 -78.416245 2.0614021 12
54.675034 -77.39724 2.6732819 24.583334
57.371567 -76.018646 2.1921411 34.5
57.568619 -75.899086 2.5336609 38
58.694164 -75.429939 2.6526859 13.777778
58.707352 -74.539787 2.7939544 13
60.548183 -74.320946 2.6366446 17.081633
63.378231 -73.041573 2.4162004 11.5
61.571381 -72.874191 2.4010279 2.3333333
62.248341 -72.663597 2.5987992 2.5
63.422791 -72.704437 2.4524608 20.875595
64.910576 -72.331047 2.6956525 3.5
65.208191 -72.151619 2.5968223 8.5
65.734871 -71.830643 2.4229519 7.6666665
66.417183 -71.374329 2.1509111 10.151786
65.84053 -70.316032 2.1956978 19
66.244835 -70.650017 2.3140464 11.892858
65.462158 -69.515404 2.4949629 18.021296
63.366764 -66.927628 2.3196201 20.666666
61.953644 -64.0457 2.4153285 11.333333
61.394604 -63.353519 2.6380804 14.594444
60.959354 -62.501877 2.773422 14.75
61.232178 -62.652874 2.37131 16.6
72.570267 -62.042503 2.4002295 2.6666665
59.238037 -61.634998 2.2640035 4.3333335
60.637615 -61.481194 2.8234596 15.45
71.234558 -61.514629 2.1636012 1
72.702042 -61.244198 2.051867 2
55.807537 -60.784611 2.0502274 5
56.145481 -60.803505 2.8292027 5
58.764935 -60.588905 2.6261861 4.666667
72.768646 -60.539703 2.2144692 4.6666665
73.122894 -60.841446 2.1627512 8.333333
54.985741 -59.275734 2.5348792 5
55.322395 -59.895729 2.3358731 5
57.76619 -59.348888 2.3231022 4
58.39463 -59.494591 2.3878284 13.966665
71.790451 -59.646626 2.0276308 62.974998
72.520668 -59.428322 2.3105602 40.278137
54.564423 -58.506805 2.7818537 5
58.767914 -58.825287 2.4020464 11.333333
56.601734 -57.459244 2.375541 5.6666665
57.376038 -57.012177 2.186275 6
55.69857 -56.701172 2.3322289 6
60.411766 -55.423279 2.4738636 5
61.012535 -55.075539 2.5364151 5
61.688812 -54.792011 2.5782144 22.133333
62.499367 -54.344067 2.6541114 24.066668
63.410736 -53.704052 2.0437524 18.466667
64.025574 -53.307335 2.1153314 8.833334
62.740372 -51.298008 2.5922339 11.833334
69.682098 -51.941444 2.190258 34.25
14.132026 -45.542843 2.8808494 24
13.448084 -44.38937 2.8298531 22
13.823867 -43.230835 2.7072091 21
14.354449 -43.84779 2.7236443 22
10.910891 -39.362499 2.5782204 16
11.47859 -39.717968 2.5695555 21.5
10.562739 -38.596367 2.5373726 16
9.9048529 -37.197048 2.4642704 15
10.229774 -37.891823 2.5006742 15
9.58992 -36.519829 2.4286835 14
9.1511497 -35.568657 2.3785191 13.5
8.5639524 -34.015995 2.2877035 13
8.1906729 -33.506779 2.2705107 12
7.6881618 -32.627022 2.2310429 15
-16.437483 -31.746309 2.9479282 31.222221
-15.548576 -31.319695 2.8532746 29.5
6.9994721 -31.33452 2.169733 11
-14.566348 -30.835501 2.7480977 37.111111
-13.476959 -30.300222 2.6316538 39
-12.476574 -29.807819 2.524781 34.5
-11.522147 -29.342072 2.4232235 34
6.3950601 -29.58906 2.0640416 13
-10.460564 -28.820324 2.310183 31.75
-9.5804901 -28.384481 2.2163692 34.166668
-8.9822226 -28.102158 2.1533594 28.333334
5.9040027 -28.140165 2.9906611 13
-8.3855476 -27.810612 2.0900462 27.75
-7.5187721 -27.443712 2.6681747 21
-4.3433228 -27.332373 2.7132468 9
5.4870682 -27.409916 2.9302328 13
-6.1751008 -26.663773 2.8171139 23
-5.5115762 -26.352627 2.7317243 47.625
-4.6482482 -26.234207 2.6458561 17.133335
4.892458 -26.155489 2.818696 12
5.1304693 -26.66221 2.8638797 12
-3.3244493 -25.370897 2.457911 20
-2.7173023 -25.315754 2.4018173 7.75
1.7397813 -25.430464 2.9534662 11
4.595983 -25.540846 2.7644985 15.333333
-2.0684896 -24.707966 2.2952003 26.5
-1.4825948 -24.429775 2.2228189 27.5
-0.48825938 -24.122614 2.6281152 18.816666
-0.5457834 -23.939377 2.5272088 31.416666
0.55227691 -23.514006 2.6430454 18.299999
1.2292897 -23.500959 2.7580252 34.833332
2.0442433 -23.141817 2.6533823 24
16.298809 -23.356148 2.9373102 13
2.4844425 -22.457804 2.5387568 35.400002
3.5833995 -22.138773 2.4233153 23.5
15.867544 -22.406563 2.8150959 12
3.4953847 -21.985727 2.4107621 36
15.438265 -21.497726 2.6979115 12
15.619837 -20.817556 2.6043046 19.799999
16.164192 -20.546316 2.5623958 21
-24.123253 -19.672476 2.9918728 22
-23.886372 -19.752508 2.9757288 44
-25.265244 -17.450047 2.9815431 10
11.308313 -17.522285 2.5895374 27.802082
-19.441811 -13.06092 2.2767317 13
-20.265625 -12.45136 2.3176873 47.816666
-19.446907 -12.743925 2.2620077 30
14.927741 -12.004126 2.3734012 7.5
-27.6199 -11.779359 2.9148169 10
-20.736429 -11.500614 2.3126681 35.716667
14.795712 -11.579026 2.4739559 10
-27.181599 -10.556402 2.820704 14
-22.247156 -10.548624 2.3971202 25.9
-21.352118 -10.829541 2.3336642 73
-20.117544 -10.00186 2.9839883 13
13.856684 -10.004635 2.3562298 9
14.168614 -10.500474 2.4472291 7.5
-22.893688 -9.214467 2.3906379 14
-21.757008 -9.4601345 2.3045213 71.25
-20.375538 -9.5326729 2.8257191 12.3
-13.200813 -9.3520212 2.5273979 9.833333
-12.315196 -9.2613783 2.2164333 76.027779
13.58433 -9.5159874 2.6418884 8
-23.045441 -8.4354019 2.3677979 37.333336
-22.13249 -8.5575638 2.2949693 13
-21.151196 -8.1359138 2.191277 6
-20.787878 -8.8250971 2.1919329 12
-12.338631 -8.9645748 2.3793571 79.666664
6.730741 -8.1080399 2.3351991 18.5
12.840935 -8.354434 2.2783613 7.4000001
13.125193 -8.7944536 2.4213166 7.5
-22.698694 -7.5874505 2.2991769 95.199997
-8.2536249 -7.1331339 2.4917455 42.030907
6.6755705 -7.9367428 2.4830987 17
7.5639238 -7.109159 2.4725995 17.75
12.22964 -7.4249959 2.641094 18.489742
-23.381428 -6.2229013 2.2959836 84.916672
-22.071585 -6.17663 2.5853765 15
-21.942453 -6.3636189 2.5822096 78
-8.4004564 -6.9109879 2.742548 15.222221
7.3930902 -6.3262444 2.2969155 22.182631
12.600236 -6.8327308 2.6686184 35.618332
13.242074 -6.46945 2.5588207 32.305553
-23.435562 -5.6128693 2.273216 37.875
-4.593101 -5.0311966 2.2547669 4.5
-19.663925 -4.2403531 2.5975823 39.166664
-4.3168859 -4.9494724 2.2339587 19.541666
-3.7345152 -4.616981 2.0686567 6.3333335
-20.124502 -3.293422 2.6049888 36.333332
-19.885551 -3.4871106 2.5858669 31.179998
-19.265926 -2.7782106 2.4753556 13.5
-18.614531 -2.4591804 2.3806977 11
-17.944988 -2.2196925 2.9324753 13
-16.388525 -2.0499392 2.090415 5
19.576385 -2.7631731 2.3826814 28.1
20.367235 -2.2766833 2.5628273 29.523809
-16.165846 -1.5428516 2.2961442 23.864815
-15.895749 -1.5435091 2.5760701 24.777777
20.761177 -1.5213053 2.8785579 23
21.515936 -1.6869839 2.2243874 20.388889
22.469625 -1.1821465 2.2895105 5
-15.269456 -0.69871992 2.6190994 22
-14.677421 -0.38061363 2.4636059 22.875
-13.844707 -0.058902871 2.1836462 22
17.413815 -0.54669029 2.9953125 16
19.975622 -0.21455592 2.6995854 24
20.230143 -0.62787271 2.7553871 22.766668
23.441023 -0.54873621 2.3521755 22.166666
-12.233897 0.44737875 2.6304641 18.229168
-11.898553 0.43621457 2.4789641 26.421694
19.581711 0.51310623 2.6132979 21.820833
-12.015985 1.2979271 2.7189879 12.857142
-11.440944 1.543151 2.6875906 17.354168
-10.771444 1.6336435 2.2012279 31.147617
-9.7159109 1.9105971 2.1811185 13.571428
19.53071 1.0715581 2.5837975 4
20.790293 1.3548908 2.7427704 18.200001
21.299585 1.7562729 2.7978117 20
26.897995 1.7202977 2.5957646 29.625
27.069027 1.6829747 2.6138721 30
-11.304917 2.1510503 2.9641752 18.200001
-10.466616 2.1293399 2.8448682 10.25
-9.5216465 2.3102875 2.4156721 19.583334
-8.2301569 2.4813883 2.4133267 13.339286
-7.9046884 2.5098169 2.5456181 7.9634523
21.243582 2.3714092 2.7727716 25.611113
26.568062 2.535327 2.5353203 26.125
-8.3710861 3.6639488 2.8552411 10.354167
-7.554069 3.5186653 2.4644842 18.300594
25.926432 3.2490957 2.4507375 14
-9.1527891 4.5374336 2.8308234 11.82
-6.5224557 4.0909696 2.1714232 10
-5.4539051 4.7232842 2.1276879 16.916668
19.850225 4.7092471 2.5557127 23.055557
33.920723 4.0426192 2.0117435 33
-9.3078527 5.3727469 2.9258835 9.6111116
19.373526 5.5130763 2.4959259 23.642859
-4.4343066 6.5781097 2.1580987 7.8365383
18.767199 6.5511556 2.4316349 23.555557
19.074375 6.0262842 2.4623322 23
21.896191 6.3953266 2.0161419 15.875
22.204819 6.1390653 2.0457711 9.666666
29.413261 6.3960109 2.725451 20.25
30.275936 6.9117517 2.8013067 33.5
-4.347271 7.3864422 2.2843807 3.5
18.248821 7.4532213 2.3880672 24.083334
30.721888 7.1739101 2.8407576 30
31.55504 7.6524892 2.9149203 32
-4.622118 8.162714 2.4865351 22.125
53.621651 14.690636 2.989233 63
53.271885 15.275311 2.9606473 84
40.618973 -96.016838 3.4494462 17
41.133659 -95.813553 3.3502846 16
47.370495 -92.501175 3.6432695 19
48.140514 -92.18071 3.4682355 9
48.867279 -91.805969 3.3115618 17.5
51.674675 -90.514206 3.9087086 18
52.385002 -90.094727 3.7318888 14
53.94669 -89.115784 3.3490925 18
54.191559 -89.030388 3.2833309 18
53.873001 -88.975906 3.3831668 18
54.794056 -88.673737 3.1340356 17.5
55.809219 -88.376923 3.9170804 15
56.18037 -88.146492 3.8101144 15
56.696018 -87.836319 3.6611238 14
57.113506 -87.621468 3.5386519 9
61.551964 -87.78009 3.0485992 7
61.092747 -86.497482 3.2167845 23.5625
59.998055 -85.264992 3.6193361 6
60.645985 -85.574608 3.3873501 31.9
43.347767 -83.547195 3.3005705 21
45.8368 -81.932037 3.0191813 18
49.338062 -80.50322 3.563056 38
51.314522 -79.492348 3.2102079 14
52.024536 -79.08873 3.0901728 22
52.360939 -78.846191 3.5263681 30
55.24168 -77.188629 3.4123802 22.200001
56.972809 -76.70816 3.7680244 11
57.34119 -76.476158 3.6768479 15
58.296188 -75.76413 3.459887 17.5
61.29443 -74.30555 3.6087856 17.095238
61.930607 -72.899811 3.2605343 3
62.589127 -72.631256 3.0514107 2
63.926418 -72.828789 3.0370989 13.666667
65.443001 -68.938469 3.0824838 6
60.621094 -62.513611 3.1489534 16.666666
59.442451 -61.478802 3.6950049 30.958332
55.722633 -60.036331 3.1021791 5
56.050728 -60.257072 3.0025101 5
60.279221 -60.880459 3.0633597 3
71.230209 -60.206024 3.1236639 4
55.382195 -59.398315 3.3283253 5
58.078445 -59.407352 3.0515399 4
70.66597 -58.486343 3.5018506 3.25
70.100616 -57.909092 3.8265462 4.3333335
69.645584 -56.546673 3.8899453 9.333333
61.251175 -55.202248 3.2464383 8.333334
68.703796 -55.615486 3.7601366 8.625
69.249283 -55.644051 3.6892872 4
61.415432 -54.965393 3.3010325 9
59.845074 -53.258152 3.8903275 23.5
60.181709 -53.079334 3.9162884 24.799999
67.477661 -53.90699 3.8129683 14
60.233273 -52.796242 3.9916973 10
61.331024 -52.24992 3.2354481 34.5
11.712322 -39.491188 3.9873004 26
10.637951 -38.48164 3.9308567 24
10.320935 -37.816231 3.8708501 23
9.6858177 -36.252068 3.7231975 22
-8.7392254 -35.648891 3.8096418 14
9.2185097 -35.440704 3.6550441 21
8.4146004 -33.642311 3.4901042 19
-17.647671 -32.236034 3.07232 41.625
7.7151957 -32.373917 3.3821418 18
8.0001535 -32.828762 3.4186893 18
-18.382893 -31.451584 3.0937929 35.666668
-13.139557 -31.083826 3.8342123 12
7.4025335 -31.777651 3.3305078 17
-14.530234 -30.72588 3.9392726 24.5
-13.468018 -30.213604 3.7939935 31.4
-12.929276 -30.170053 3.7384119 17
6.9745584 -30.853285 3.2470493 16
-11.461942 -29.387625 3.5334885 18
6.4531884 -29.478037 3.1156785 14.666667
-10.242639 -28.643526 3.3564587 30.5
-9.4238873 -28.247078 3.2468774 29.416666
-8.6610336 -28.086655 3.1628513 14
-7.5465469 -27.291254 3.6620209 28.222221
-6.8294392 -27.593155 3.9638646 13
5.6777906 -27.573034 3.9385948 29.125
15.868767 -27.954634 3.5853992 15
16.276901 -27.676413 3.5368373 34.75
-6.1989036 -26.596802 3.7830284 25.333334
-5.4270039 -26.216808 3.6628165 37.0625
-4.2455311 -26.293381 3.560647 12
-3.820303 -26.141077 3.50314 12
2.1432652 -26.27562 3.02583 12
4.9424257 -26.056009 3.7469208 24
5.1810102 -26.560333 3.8109357 25
-4.7341022 -25.936949 3.5633593 30
-3.3786519 -25.473263 3.3825307 21.299999
-2.5335343 -25.469893 3.3067553 11
1.9830683 -25.9741 3.0011702 11
4.6123605 -25.387604 3.6630712 18
17.306856 -25.533882 3.2185302 14
-2.1257806 -24.809422 3.1910686 27
-1.5869639 -24.348112 3.4609432 41.635715
-0.99522042 -24.100504 3.0087423 31
16.769691 -24.387867 3.0702496 13.5
-0.56403899 -23.894176 3.8018501 35.541664
0.60225004 -23.410711 3.6315844 25.083334
1.6334746 -23.261017 3.5298893 54.104168
16.346264 -23.290771 3.9395714 12
17.900427 -23.263939 3.9480848 17
2.4549472 -22.44265 3.3435059 48.883331
3.4821243 -22.086212 3.2199745 41
15.806882 -22.117718 3.7433209 15
16.020763 -22.572138 3.819582 7
17.527882 -22.467205 3.8155212 16
-30.743967 -21.192123 3.626071 17
3.6090946 -21.909113 3.5827203 28.958334
15.519039 -21.484814 3.6372876 14
17.240694 -21.873322 3.7167168 16
15.292708 -20.882664 3.5368259 14
16.390497 -20.439066 3.4765406 10.5
-21.097849 -19.370579 3.7345772 9
11.582774 -18.378485 3.6293123 20
17.711313 -18.790457 3.9214954 7
18.643724 -18.264862 3.8860281 8.75
11.452476 -17.561438 3.7212317 19.125
10.250426 -15.353004 3.9296303 9
9.7981367 -14.417965 3.6973462 14.5
10.080507 -14.992564 3.8402314 9
9.3344126 -13.421434 3.5979261 17
-20.175947 -12.385845 3.5663023 70.833336
-19.211512 -12.549446 3.3148534 54.194447
-18.928204 -12.624467 3.8292603 47
8.8565102 -12.310089 3.7385046 7
9.2378607 -12.706043 3.3821671 12.541667
-20.61342 -11.5379 3.4202244 56.597225
8.5146322 -11.604703 3.5355899 9
14.736371 -11.386733 3.5035088 6.7083335
-22.073723 -10.222679 3.2275383 35.833336
-21.034269 -10.650217 3.5523376 65
-20.893503 -10.826639 3.9668684 81
-19.784103 -10.55485 3.7805543 15.75
7.8472357 -10.245375 3.1449647 20
8.1273708 -10.818392 3.3093414 16.5
9.8857899 -10.167677 3.6906819 14.5
13.916295 -10.116407 3.6172032 2.75
14.28576 -10.625308 3.3272066 5.3333335
-22.635189 -9.0938616 3.225688 52
-21.645319 -9.4671698 3.4112682 96.583336
-20.282024 -9.596879 3.7792063 13.5
-13.321935 -9.3379049 3.5209987 19.833334
-12.182899 -9.0964203 3.3784332 84.354164
7.8012595 -9.8477888 3.0426052 16.777777
10.062233 -9.9703999 3.6657972 11
13.481641 -9.4014902 3.5813503 2.4166665
-23.040482 -8.3039608 3.2275398 45
-22.402855 -8.5366116 3.6720474 76.659996
-21.951078 -8.9078827 3.1334772 36
-12.272621 -8.9103451 3.3722429 80
12.849704 -8.3781519 3.3926857 2.0666666
13.140194 -8.8339558 3.5771787 3.1666667
-22.617195 -7.6030374 3.2785034 73.166664
-21.541922 -7.7486954 3.8339055 9.5
-20.758904 -7.3438444 3.6859417 9
-8.0491199 -7.1246009 3.3792887 24
12.312505 -7.5152173 3.3867233 14.638889
-23.339516 -6.1889744 3.1446619 59.25
-22.955811 -6.9106936 3.1382794 100
-20.576658 -6.5306129 3.6024737 73.375
-8.2988768 -6.8801789 3.5803795 35.537037
12.592062 -6.7388864 3.3844621 35
13.117675 -6.4199181 3.4226263 30.333334
-23.470518 -5.6113544 3.1294291 34.125
-22.79653 -5.1951194 3.0260131 14
-21.22467 -5.2348928 3.6185551 73.400002
-20.977243 -5.7164779 3.6106293 80.166664
-21.386854 -4.9260917 3.6246915 71.800003
-19.486105 -4.1150465 3.6390071 66.25
-20.126627 -3.5093162 3.3448246 37.055553
-19.597334 -3.9066858 3.5247405 74.666664
-14.093271 -3.2640381 3.9798422 15.625
-12.093251 -3.3240576 3.9387257 16.376192
-10.511976 -3.5276561 3.9254162 26.718182
-20.136059 -2.8620358 3.3104012 28.75
-19.666573 -2.4718795 3.5737822 12.5
-16.599976 -2.5524836 3.959939 17.214287
-13.956159 -2.5071058 3.8815298 16.714285
-12.041904 -2.6101511 3.8526402 16.5
-11.970378 -2.1632068 3.7913766 16.799999
-10.503558 -2.5100384 3.8019133 26.368689
14.873086 -2.0289102 3.2088475 13
18.930706 -2.2214468 3.3628178 34
19.130104 -2.5581107 3.4224463 32.375
-16.257381 -1.4445915 3.4325867 19.70303
-15.946712 -1.5911859 3.5547774 36.972225
-13.693921 -1.4675179 3.7386227 15.90625
-11.871665 -1.5805945 3.7153838 16.533333
-10.403287 -1.6661819 3.6858273 24.434523
15.38266 -1.647854 3.2825406 16.6
16.128725 -1.2016287 3.4026103 17.75
17.669098 -1.1023179 3.0715718 11.5
18.564774 -1.6165518 3.2577887 32.799999
-16.299856 -0.58656359 3.2794569 41.633335
-15.491997 -0.36656737 3.4859428 14.150001
-13.280559 -0.33222416 3.5639973 9.333333
-11.632124 -0.54260695 3.5755455 15.711805
-10.208884 -0.59313577 3.5405722 24.03447
16.708799 -0.85510683 3.4993646 17.833334
17.526608 -0.51633728 3.2655747 15.591667
18.156393 -0.081736013 3.0975308 16.5
-17.045254 0.072241545 3.9184599 3
-14.727379 0.013471492 3.3877249 19
-13.097862 0.077635445 3.4959724 2
-12.281665 0.63280594 3.2572358 13.633334
-11.526383 0.50210017 3.3028548 13.289116
-10.044023 0.1653538 3.4437852 22.333334
-9.9224968 0.55055726 3.3885574 23.4375
18.652395 0.21622178 3.1679721 19.125
19.395962 0.72247952 3.4144969 21.039999
-12.023512 1.3399472 3.1675496 12.428572
-11.718708 1.4519733 3.0844352 11.599999
-10.893489 1.4260758 3.2806284 2.7925928
-9.4898453 1.5646949 3.2246292 12.133333
19.470778 1.0935315 3.2717061 13
20.490763 1.3233002 3.4372094 12.166667
21.525105 1.9732307 3.5931556 6
-12.645884 2.8184006 3.4372466 9.541667
-10.548248 2.1131275 3.1699009 8.5
-9.2085934 2.210815 3.132158 3
21.149942 2.6245916 3.5144708 4
-13.089293 3.2300639 3.936305 20.6
-8.8196545 4.5694532 3.1164312 2.25
20.00885 4.6015053 3.3082519 3
-9.7335672 5.7013683 3.3883843 11.083333
19.486204 5.4698281 3.4753733 5
-10.280784 6.5510416 3.5080667 13.5125
-10.614412 7.1960983 3.6602345 11.125
-5.4633083 13.783235 3.7547584 2
-5.5186381 14.811143 3.9758441 29.666666
-4.5628123 14.920105 3.8463051 29.5
53.907883 14.186035 3.013824 63
-5.1384883 15.012374 3.95504 31
-4.9622407 15.111313 3.9479487 31.333334
45.410332 -93.746979 4.0391159 21
48.40522 -92.409874 4.7245493 17.5
49.490185 -91.836624 4.4482164 16.75
51.05508 -90.837837 4.0666823 7
52.970131 -90.054977 4.7417922 19
53.370556 -89.832642 4.6243305 19
54.428108 -89.100403 4.3234239 14
55.462036 -88.669685 4.3721561 14
56.716408 -88.118721 4.6795602 10
57.388779 -87.709381 4.4566994 9
37.766857 -86.368378 4.0736408 14
43.825928 -83.769966 4.4745312 9
44.123184 -83.432167 4.4516754 39.5
46.67532 -82.085266 4.0024452 29
46.611931 -81.930321 4.0445042 32.5
49.188431 -80.98011 4.6382551 13
50.052177 -80.378197 4.4723129 29
50.463585 -79.985397 4.409544 18
53.116333 -78.810699 4.7611775 34
55.685444 -77.512199 4.3758097 20
56.262253 -77.291039 4.7703118 25.5
56.655926 -76.882103 4.6767697 13.5
58.728367 -75.675507 4.2508507 21.75
59.040691 -75.802315 4.6739039 12.4
59.790031 -74.415573 4.5456452 3
58.338238 -62.651131 4.5383558 19.049999
57.662865 -61.468433 4.7883763 26.854166
58.457916 -60.328457 4.2485466 24.233332
58.471321 -59.93364 4.3798523 7.3333335
68.255371 -57.059456 4.4636717 1
69.374748 -57.276264 4.1993728 5.75
67.916283 -56.766853 4.6376591 1
68.677589 -56.358902 4.0886941 6.3333335
19.048361 -49.911007 4.8049049 46
15.302596 -45.571205 4.4997616 34
15.706378 -42.241356 4.0884762 31
11.382726 -39.612526 4.0208454 26
-14.459631 -38.25827 4.5563536 17
20.892916 -38.003036 4.8911834 47.333332
-15.075113 -37.069981 4.5157304 16
21.165077 -37.889126 4.8680096 28
-15.199913 -36.845612 4.5090203 16
-10.712042 -36.481754 4.0588503 14
9.1532202 -35.054798 4.9003534 18
8.4688854 -33.491943 4.6964502 17
-17.620661 -32.168507 4.3618078 34.900002
7.8107328 -32.148735 4.5251908 16
8.0547514 -32.686062 4.5946732 16
-18.375113 -31.323217 4.3692751 32.416668
-16.063423 -31.488377 4.1520643 26
-15.427144 -31.460993 4.0872717 14.916666
7.4500937 -31.35701 4.4229288 15
-18.952875 -30.901491 4.3937826 13
-13.440908 -30.070686 4.9513402 35.5
6.8930931 -30.132793 4.2649717 14
7.1040568 -30.593733 4.3243332 15
-13.138362 -29.92977 4.9014549 35
-12.767065 -29.927135 4.8600602 26
-11.550435 -29.39184 4.6651759 24.333334
-10.979391 -29.593527 4.6272068 16
6.6048126 -29.550129 4.1912012 14
16.674707 -29.19462 4.940134 11
-10.23732 -28.538723 4.4249401 27.5
-9.5622578 -28.208103 4.3150396 31.25
-8.3061333 -28.259489 4.1911983 14
6.2889857 -28.863228 4.102921 13
-8.6288528 -27.924149 4.1846581 21.125
-7.4368105 -27.303757 4.4936857 32.75
5.6610584 -27.414358 4.9203982 18.333334
15.767387 -27.074432 4.5793848 15
16.114189 -27.989458 4.7353373 21
-6.6114769 -26.685228 4.819912 42.5625
-5.6816735 -26.243952 4.6529279 41.666668
5.1687636 -26.375954 4.7486548 20
15.938769 -26.928905 4.5538836 10
16.065613 -26.8374 4.5375366 10
-4.5468273 -25.69977 4.4520478 45.5
-3.5770607 -25.24024 4.284739 44.833332
4.6710172 -25.340443 4.5781388 20.5
17.364353 -25.475657 4.3063078 9.5
18.831635 -25.271505 4.2827854 10
19.078541 -25.77775 4.3674917 10
-3.0319622 -24.98184 4.1922746 47
-2.4164093 -24.601974 4.4572496 36.771427
-1.6026424 -24.10009 4.79671 36.825001
16.850937 -24.365566 4.1195869 8.5
18.509161 -24.57444 4.1664572 14
-0.54293454 -23.644112 4.6151066 41.516666
0.54308993 -23.202787 4.4409385 36.375
18.202305 -23.909248 4.0555668 18
21.928362 -23.104633 4.8293705 10
1.4622326 -22.792109 4.2920718 21.5
2.5755296 -22.28834 4.3521686 30.311905
3.5404632 -22.067314 4.4240217 20.75
13.63716 -22.552944 4.760911 8
14.991579 -22.268715 4.728168 26
15.241819 -22.148024 4.7101059 35
21.504858 -22.426067 4.6986675 9.5
3.6043906 -21.924055 4.6330934 27.920002
13.081646 -21.395897 4.5186892 7
15.628807 -21.672634 4.6280107 20.6
16.649492 -21.496378 4.6247196 33.5
20.851809 -21.380726 4.4975138 18
21.111364 -21.788843 4.5762491 18
12.708158 -20.633574 4.3590608 7
15.405231 -20.84494 4.4616475 8
16.855524 -20.827997 4.505002 8
20.368898 -20.608625 4.349153 16.666666
-24.293127 -19.339653 4.0884061 16
12.212491 -19.544243 4.4094677 13
19.784077 -19.678043 4.1704526 15.5
-20.359869 -18.716036 4.5924835 39
11.752294 -18.475801 4.7066517 15.5
17.773685 -18.701275 4.8393269 8
18.69429 -18.139372 4.8061504 8
-25.09697 -17.11124 4.0254402 52.666664
-24.933643 -17.445271 4.0295353 48.5
11.252823 -17.425442 4.4452772 17
10.790458 -16.407207 4.4343667 11.666667
12.775499 -16.77206 4.3666167 52
13.14202 -16.379148 4.3005843 27.714285
10.420966 -15.568891 4.5031052 11
9.8255749 -14.320776 4.3174391 12
10.0077 -14.688444 4.4239578 10
9.4976063 -13.642849 4.1217284 9.333333
-18.758638 -12.270917 4.583827 94.666664
13.275522 -12.738482 4.7384048 35.599998
-20.611416 -11.265211 4.8089933 100
-19.25671 -11.395154 4.5803452 26.75
-18.987619 -11.896298 4.5844917 46.75
14.809527 -11.543874 4.3380613 14.083334
-21.486359 -10.427198 4.2358308 24.333332
-20.862328 -10.753956 4.8044758 61.599998
-19.514328 -10.682158 4.5550575 10
-17.859472 -10.256721 4.9711552 40.194447
13.916859 -10.015085 4.2301178 4
14.256231 -10.599622 4.4038787 8
-22.524742 -9.3536949 4.2455511 37.666668
-17.869261 -9.4163513 4.8752632 17
-14.337643 -9.3992443 4.7729239 9.9333334
-13.499072 -9.3501825 4.5681028 16.666666
-12.114651 -9.098834 4.208292 41.666668
13.591409 -9.4927835 4.0725174 4
-23.180716 -8.561965 4.1413221 33
