# .PCD v0.7 - Point Cloud Data file format
VERSION 0.7
FIELDS x y z intensity
SIZE 4 4 4 4
TYPE F F F F
COUNT 1 1 1 1
WIDTH 1302
HEIGHT 1
VIEWPOINT 0 0 0 1 0 0 0
POINTS 1302
DATA ascii
18.896685 -46.297318 6.1661463 42
19.60136 -46.240101 6.1315017 42
20.863529 -46.542439 6.131628 42
63.534676 -46.648949 6.4311075 14
18.827538 -45.478729 6.0471649 40.5
62.823715 -45.618668 6.8169174 46
11.458407 -39.177586 6.8775806 34.333332
10.797246 -38.253502 6.7311144 16
10.44986 -37.517349 6.6073647 15
20.653116 -37.632397 6.374824 20
9.8151703 -36.203156 6.3872499 14
10.133858 -36.874393 6.4998722 15
9.516634 -35.56295 6.2796917 14
19.635859 -35.489059 6.0103064 17
9.2072639 -34.888451 6.1661868 13
-17.389969 -32.109917 6.9484043 37.5
-16.932873 -32.314438 6.9166594 18
7.9095569 -32.039368 6.8857365 13
8.1926432 -32.486488 6.9752355 13
18.744955 -32.995861 6.9506741 25.5
-18.288616 -31.426472 6.9728322 27.5
-17.706711 -31.873089 6.9571681 49.833336
-15.645679 -31.47821 6.6257577 23.611109
-14.203304 -30.415989 6.2835522 29
-13.824704 -30.204056 6.2039566 33
7.2171288 -30.783453 6.6309614 12
17.507191 -30.450686 6.4165826 45
-19.95454 -29.647156 6.957355 18
-13.213848 -29.724062 6.0556893 32
-11.378449 -29.273935 6.9041629 29
-10.700686 -29.626511 6.8783636 10
-7.1457281 -29.600941 6.431397 9
6.747345 -29.452757 6.3508148 11
-10.071351 -28.347214 6.5593443 38
-9.6006689 -28.124979 6.4568887 36.666668
-8.3406143 -28.042131 6.2816987 8.25
-4.25072 -28.45826 6.9516892 10
6.4515138 -28.860641 6.2298384 10
-9.0549078 -27.85766 6.3370404 35.5
-8.7890339 -27.864365 6.3045883 30.5
-7.5597596 -27.46166 6.2494931 20.333334
-6.8676748 -27.347252 6.4896688 8.5
-4.4763675 -27.87911 6.8448796 9
6.1537938 -27.982649 6.0446544 10
16.299776 -27.634829 6.9974928 46.5
-6.1315999 -26.640003 6.759984 9
-5.5444803 -26.109602 6.5684452 35.5
-4.2842007 -26.101032 6.4188194 8
0.54081231 -26.768877 6.1090941 8.4444437
5.4601588 -26.607 6.7675996 23
-5.0207129 -25.869083 6.4512005 35
-4.6277895 -25.809986 6.3920164 26.75
-3.191983 -25.213459 6.3327184 33.5
-2.6776741 -25.162611 6.5028286 9.6111116
4.797575 -25.258892 6.440598 22.75
5.1342039 -25.932352 6.6035385 24
15.131216 -25.249262 6.4011197 42
-2.1805274 -24.901659 6.8544083 7
-1.7012846 -24.213337 6.6223574 27
1.8191621 -24.696877 6.456377 10.95
2.3140728 -24.747807 6.4372635 14
-22.331722 -23.362371 6.4826679 29.75
-21.765909 -23.743896 6.4420199 61.555557
-1.1464252 -23.942835 6.4962444 42.375
-0.48362595 -23.769815 6.3895254 25.200001
0.6804384 -23.387024 6.4091263 20.5
1.293952 -23.141806 6.3706508 18.4
-22.71578 -22.525808 6.4393048 31.888887
1.5442966 -22.90024 6.8642082 19.333334
2.4179583 -22.338633 6.6378245 25.333334
13.995231 -22.603857 6.728292 25
-26.594059 -21.195381 6.919239 17
-23.163414 -21.6092 6.3991003 38.375
-22.986401 -21.97333 6.4147201 38.5
2.9160364 -21.993618 6.5058441 33.5
3.5765247 -21.753412 6.4020762 31.25
12.731427 -20.115835 6.0023069 23.333334
-24.295185 -19.298782 6.313797 22.5
-23.963997 -19.444796 6.2747774 30
-25.191099 -17.308996 6.2448106 14
-29.102165 -13.511674 6.5618715 47
42.959423 -95.139618 7.7340527 14
43.45631 -95.497314 7.5388093 27.555557
44.712685 -94.975601 7.1531858 12
46.80986 -94.163193 7.9904585 23
47.472923 -93.754517 7.767621 22
48.080559 -93.387527 7.5631609 21
49.347202 -92.445152 7.1456795 19
34.393074 -89.218658 7.8005934 38.333332
40.415783 -86.325272 7.9589491 33
42.953621 -84.800629 7.3221054 37
46.259544 -83.287369 7.7178779 24.25
49.391155 -81.698456 7.9359827 26
51.815323 -80.252441 7.1107216 20
58.453186 -61.146 7.1525946 20
17.92622 -46.236427 7.9683533 27
18.213661 -46.267937 7.9663177 27
19.588778 -46.289204 7.9356627 27
18.900106 -45.510326 7.8106909 27
24.607868 -45.917408 7.784296 54
60.935673 -43.379051 7.6879101 27
61.237282 -43.359863 7.6655531 17
10.500058 -37.288914 7.9679585 18
21.071539 -37.982517 7.9967809 21
9.862977 -36.00111 7.7018528 16
10.18486 -36.678783 7.8422661 17
9.5561686 -35.33532 7.563693 16
19.943207 -35.530228 7.482338 19
-22.169016 -34.18576 7.9025488 24
9.2659826 -34.713413 7.4348326 15
-21.014488 -33.276466 7.6125364 31.5
-20.398664 -33.454479 7.5512953 20
-19.81892 -33.131012 7.4251742 30.5
-17.471283 -33.915306 7.2194648 20
8.6583109 -33.356617 7.1530099 14
-19.268259 -32.851082 7.3095274 20
-18.96418 -32.579597 7.229208 19
-12.083335 -32.406963 7.5741086 12
-18.609089 -31.471504 7.0234466 18.5
-15.504854 -31.236135 7.843286 23.4
-12.693861 -31.139046 7.424511 12
-14.273815 -30.344978 7.5040922 24
-13.784895 -30.122574 7.3936996 35
-12.648741 -30.061823 7.2221956 11
17.592438 -30.293949 7.6628609 32.5
-13.2552 -29.905724 7.2791862 39.833332
-12.840178 -29.945169 7.227747 34
-11.052572 -29.193838 7.9988952 12
6.7392387 -29.30352 7.426394 11
-10.088856 -28.258305 7.6533508 22
-9.7710562 -28.115305 7.5762219 32.666668
-8.4598074 -28.047117 7.3780031 10
-4.0279536 -28.900213 7.028059 10
6.3970475 -28.487879 7.2251034 16
-9.351181 -27.912668 7.4718976 31.5
-8.6999035 -27.806271 7.3577113 24.083334
-7.5449386 -27.356054 7.1015887 22.666666
-6.5992641 -27.032778 7.9499965 9
5.8442273 -27.17539 7.945528 20
6.0033503 -27.630102 7.0148535 24
-6.49154 -26.873688 7.8939238 9
-5.814662 -26.124708 7.6073179 36
0.78143179 -26.505896 7.5148067 7
5.5909128 -26.645777 7.7951555 16
-5.3920364 -25.926083 7.5000091 35.166664
-4.4790845 -25.756491 7.3408308 23.964285
-3.3796036 -25.301989 7.0907769 25
-2.6748965 -25.052475 7.9054003 5
4.8736343 -25.174032 7.3786831 18
5.1043234 -25.649223 7.5130062 15
15.234184 -25.116978 7.4602766 28
-3.0586135 -24.977293 7.9267387 31.75
-2.5283227 -24.872053 7.8345413 9.5
-1.7561935 -24.314804 7.5813184 21.777777
1.7954521 -24.662062 7.3826761 5
4.7264509 -24.875189 7.2943888 17
-22.30933 -23.227757 7.6407614 27.5
-21.874498 -23.457623 7.5962353 34.375
-1.2289312 -23.905149 7.402914 37.599998
-0.57802844 -23.678318 7.2719293 28.5
0.44323811 -23.628887 7.168489 12.5
-22.626535 -22.516443 7.5922561 30.916666
-28.112881 -21.659576 7.2292089 45
-27.24622 -21.48242 7.0622296 17
-23.236229 -21.290016 7.5262346 28.75
-22.933229 -21.86813 7.5533557 41.166664
-28.399342 -19.298462 7.0169287 62.166664
-24.099606 -19.355465 7.4195137 30.5
-25.195578 -17.189667 7.3502545 10
5.478724 -121.27356 8.6357422 63
6.1958504 -121.71818 8.3946743 63
4.549984 -120.73207 8.9442596 63
43.946209 -95.229004 8.9893866 30
44.12817 -95.536774 8.9062271 30
46.136002 -94.556938 8.2177105 25
37.944141 -87.697876 8.5943508 13
44.703419 -84.274391 8.1709347 17
47.089981 -83.082672 8.718708 32
27.107386 -51.001804 8.6486988 27
16.985386 -49.686077 8.6325045 27
17.568272 -48.440968 8.3838129 27
19.586681 -48.52533 8.3423004 27
21.385302 -48.228714 8.2466106 27
16.395145 -47.830521 8.3087072 27
17.696043 -47.525864 8.2115889 27
18.10347 -47.393509 8.1755171 27
19.333242 -47.449974 8.1528034 27
20.554871 -47.675331 8.1646614 27
17.431055 -46.350094 8.0033474 27
19.552088 -46.649239 8.0018234 27
22.297329 -40.684837 8.5636873 22
11.547367 -39.119759 8.3424597 19
58.636902 -39.965935 8.9608612 10
10.8549 -38.070415 8.1305723 18
11.558222 -38.910332 8.2958336 19
-16.842443 -35.182587 8.7429276 16
9.6903906 -35.428108 8.9322739 18
19.96946 -35.351925 8.9271259 44
9.3890848 -34.798355 8.7768373 17
-20.369276 -33.10577 8.9170942 34.833332
8.7511835 -33.346008 8.4172029 15.666667
-19.360239 -32.769669 8.6996737 30.666666
-16.899319 -32.101357 8.2042818 14
8.192627 -32.342148 8.172266 14.5
18.769775 -32.831993 8.2967062 29
-18.40943 -31.362919 8.3074617 14
-17.506865 -31.809317 8.2455387 47.055553
7.900713 -31.872931 8.0589285 14
-14.220207 -30.222523 8.7105865 21
-13.887664 -30.060749 8.6227655 27
-4.5273314 -30.834633 8.6883049 12.25
7.2273026 -30.300209 8.8388252 9
17.632002 -30.164291 8.927063 36
-19.518995 -29.405502 8.1505785 19.833334
-13.413844 -29.841944 8.500701 26.5
-12.806591 -29.826025 8.4020224 26
-11.436897 -29.131268 8.0425215 36.5
6.7275419 -29.107855 8.4966879 20
-10.097664 -28.131971 8.7507439 28.5
-9.8999758 -28.044291 8.697175 46
-9.308672 -27.756548 8.5317297 43.666668
-8.4344406 -27.725346 8.3914328 19.6
-7.5239816 -27.209457 8.125309 29.25
-6.9994698 -27.03339 8.0054798 20.6
6.1755767 -27.710476 8.0952816 14
16.33358 -27.518728 8.1557007 38.5
-6.5786595 -26.782087 8.936512 7
-5.9369535 -26.095448 8.6387081 13
0.48532489 -26.584496 8.0658836 7.1666665
-5.4101028 -25.839905 8.4882555 33.333332
-4.5906496 -25.605129 8.3071623 24.133333
-3.5749207 -25.298613 8.0859003 9.833333
-22.230103 -23.182447 8.8143482 21.125
-21.759331 -23.372074 8.7500439 35
-22.5728 -22.445267 8.7562876 20.777779
-28.049326 -21.509565 8.4963036 81
-27.706995 -21.548752 8.4336071 35.666668
-26.867205 -21.20116 8.2197027 25
-23.183672 -21.22868 8.6776905 21.625
-22.894983 -21.785179 8.7103405 25
-26.403845 -20.978737 8.0976019 12
-28.207523 -19.204964 8.2238855 28
-24.296326 -19.320984 8.60989 24
-23.874516 -19.192175 8.4936523 23
-28.289661 -18.866886 8.1973362 12
3.5585277 -120.15723 9.2749367 63
4.096199 -120.50302 9.090291 63
2.6096992 -119.54242 9.6021137 63
3.0726624 -119.76593 9.4532852 63
35.471149 -89.259071 9.2052345 15
38.815559 -87.722359 9.9208517 36
41.28318 -86.177261 9.1992416 26.5
44.525204 -84.611847 9.5931292 29
25.677637 -71.798988 9.70854 60
29.497845 -70.258202 9.326725 60
33.700855 -70.164803 9.1696777 61
29.943991 -69.967514 9.2675238 60
30.427431 -69.657227 9.2045889 59.333332
31.406519 -69.13607 9.0940685 59
34.60944 -69.800964 9.0887375 61.5
31.772131 -68.993248 9.0609283 59
32.126797 -68.842041 9.0271463 59
30.615475 -58.545616 9.9338207 39
28.253128 -53.601368 9.0922012 29
54.097519 -46.61504 9.7924166 7
23.497368 -43.226307 9.0973482 24
10.98752 -38.119694 9.5973682 21
11.550724 -38.939999 9.7968483 31.777779
12.027418 -38.768185 9.7432652 44
10.628437 -37.358147 9.4088383 20
21.099447 -37.790497 9.5366955 23.5
9.9888296 -36.054153 9.0868826 19
10.304078 -36.723621 9.2524052 20
-22.117228 -33.945549 9.3412313 18
-21.111992 -33.018547 9.0211773 49
-20.930052 -33.115868 9.0084324 33
-13.837111 -33.699501 9.3955688 16
8.8777008 -33.224472 9.6706629 17
-21.218475 -32.804115 9.0019732 49
8.4916954 -32.671257 9.5143127 11
18.826603 -32.721577 9.6702862 28
-18.318985 -31.247118 9.6162453 20
-17.530682 -31.655243 9.5632935 37.950001
-16.923201 -31.870918 9.5042152 16
-15.52718 -31.166407 9.123476 22.5
7.8204031 -31.389698 9.1484947 15
8.1160727 -31.895025 9.2919331 10
-18.659622 -30.51544 9.5277205 15.666667
-14.207294 -30.050621 9.925005 37.5
-19.189207 -29.38946 9.3966684 15
-18.93606 -29.931583 9.4592781 15
-13.397264 -29.686457 9.692194 44.700001
-12.742296 -29.709032 9.5842304 23.333334
-11.359296 -29.085329 9.196063 26
103.16404 -29.099485 9.7071934 63
-11.36911 -28.958576 9.165514 42.833336
-10.157548 -28.15019 9.913476 16.5
103.39074 -28.420595 9.6177769 63
-9.4692507 -27.738531 9.6763353 32.200001
-8.6271791 -27.458212 9.4546909 20.666668
-7.7500558 -27.238684 9.2498856 14
-6.8389697 -27.022745 9.046628 7
-7.2602673 -26.933786 9.0838814 28
-6.9860754 -26.83161 9.0119534 28
-21.716808 -23.238113 9.9231205 50.583336
-22.192696 -22.543018 9.8930264 13
-27.3309 -21.043539 9.5752258 15
-22.708412 -21.4802 9.8039227 13
-27.403805 -20.87767 9.5657158 45
-26.734951 -20.885754 9.414217 14
-25.946085 -20.484158 9.1706877 13
-23.045679 -20.835831 9.7600279 13
-41.204788 -19.385593 9.3142252 68
-24.151653 -18.543774 9.6098824 12
-23.878277 -18.998264 9.6222382 16
9.7354431 -120.20669 10.816948 63
9.3832092 -119.95621 10.945073 63
28.582794 -93.229668 10.95816 21
36.490707 -89.15152 10.604136 36
42.173157 -86.078995 10.388605 23
33.080093 -63.791885 10.82741 50
19.425171 -62.696163 10.964096 38.5
27.205706 -50.836189 10.696521 35
25.944601 -48.101742 10.122238 31
18.674042 -47.759422 10.081394 27
54.766121 -46.820938 10.863796 7
23.531967 -42.993214 10.838308 28
49.325157 -42.199959 10.623802 12
22.328533 -40.480492 10.208867 26
10.69327 -37.196957 10.814572 15
10.356655 -36.500469 10.614041 14
9.7404175 -35.230652 10.248833 13
10.037483 -35.846741 10.425982 13
9.4414759 -34.614624 10.071807 12
19.904564 -34.996838 10.332569 15
-18.049623 -31.079218 10.892038 24
-17.443758 -31.50124 10.875879 46.133335
-16.409243 -31.276453 10.626292 17
-18.417675 -30.384071 10.800419 17.375
-15.363797 -30.775368 10.311497 16.166666
-14.756808 -30.461918 10.124601 15.75
-18.86747 -29.42835 10.667337 17
-13.222263 -29.523108 10.865517 38.166664
-12.526628 -29.298761 10.67048 20.166666
-11.929655 -29.046522 10.48763 9
-11.386105 -28.810003 10.321059 9
-10.630071 -28.459871 10.085592 8.5
-23.054066 -20.865278 10.974291 9
8.5800934 -119.43407 11.23194 63
9.096199 -119.81592 11.041798 63
6.6098557 -118.28485 11.9266 63
7.4384556 -118.74408 11.636268 63
28.501572 -92.961609 11.019668 21
33.917282 -90.64357 11.371058 65
37.42226 -89.071671 11.993466 36
30.70369 -69.243805 11.840042 57
31.627213 -68.804688 11.742612 57
32.328865 -68.47596 11.670783 57
29.625177 -55.817459 11.743402 42
19.484076 -54.099613 11.449029 35
22.515652 -40.228092 11.861547 35
11.635948 -38.755768 11.261635 31
12.036193 -38.655243 11.228231 31
11.043425 -37.921268 11.023237 15
21.206699 -37.586037 11.08968 33
-15.399949 -30.883142 11.673573 25.666666
-14.148478 -29.928093 11.158598 33
-13.829634 -29.780294 11.054937 36
-23.614258 -24.13917 11.866725 17.083334
-22.185066 -23.08009 11.241776 31
-21.590439 -23.218735 11.118263 40
-22.45713 -22.100241 11.088305 10
-21.90329 -22.948994 11.13682 20
6.0135422 -118.01231 12.129177 63
4.7919044 -117.09795 12.590948 63
5.4035378 -117.63265 12.34931 63
3.9138336 -116.80141 12.878664 63
34.857182 -90.592377 12.870169 43
22.959412 -72.770645 12.710543 58
23.476578 -72.561028 12.652812 58
24.174921 -72.300453 12.579908 58
25.438835 -71.661018 12.419761 58
27.246151 -50.580597 12.741203 40
26.006973 -47.88533 12.066998 36
53.505707 -43.273319 12.495057 9
23.744387 -42.767395 12.60231 38
53.295349 -42.754524 12.738785 9
-16.244154 -33.744488 12.638908 14
-19.347559 -32.193325 12.859952 14
-16.822933 -32.587219 12.433609 13.5
-17.583065 -31.250275 12.225595 43.599998
-16.788614 -31.653818 12.169379 19.5
-17.802948 -30.991005 12.20178 53
40.671486 -28.82818 12.084731 37.5
41.502151 -28.411062 12.140916 45.833332
42.198448 -28.044798 12.192516 49
42.549141 -27.884859 12.211588 49
-26.564098 -25.601309 12.993328 14
-25.222252 -24.567423 12.395785 12.5
-24.386715 -24.169733 12.080011 12
10.347633 -119.33163 13.837364 63
1.9824753 -116.65881 13.449 63
2.3783798 -116.74216 13.32455 63
26.542332 -95.111893 13.548607 57
26.428402 -94.844528 13.620654 57
32.462845 -92.045471 13.68548 46
19.675867 -62.139355 13.213524 45
20.244995 -54.589748 13.678332 41
28.39328 -53.14679 13.382562 43
24.94124 -45.270309 13.332071 41
-21.203209 -33.058628 13.501564 15
-20.688475 -32.826164 13.324784 15
37.494373 -31.068451 13.731909 23
37.76123 -30.92123 13.751036 47
38.562798 -30.494349 13.804034 47
38.81987 -29.930599 13.95218 95
39.265308 -29.692799 13.982052 94
-27.756763 -26.099566 13.430162 22.5
-28.125498 -25.405609 13.377592 30
-27.616434 -25.87397 13.341558 19.5
-26.901901 -25.743725 13.117194 14
9.8434906 -119.01941 14.025057 63
-4.148407 -118.6935 14.940866 63
-3.3253632 -118.55881 14.722055 63
-2.6673584 -118.5218 14.537951 63
-1.710598 -118.47622 14.269537 63
8.4034767 -118.25249 14.552619 63
9.4703751 -118.76991 14.166191 63
7.7033195 -117.89566 14.809503 63
30.063179 -93.523132 14.500456 46
26.637743 -70.957428 14.996373 60
28.497566 -70.058525 14.773125 59
28.823124 -69.857925 14.725819 59
30.578579 -69.06913 14.539573 59
30.813049 -68.956871 14.513935 59
31.477797 -68.653625 14.445469 59
32.42675 -68.20768 14.346834 59
30.778809 -58.091362 14.622285 49
26.069756 -47.685963 14.035467 22
46.361126 -31.427441 14.619061 29.25
47.054527 -31.061115 14.661352 21
47.654087 -30.813803 14.674861 21
48.082355 -30.565201 14.709288 21
39.810249 -29.42918 14.010307 94
40.328957 -29.152952 14.045115 87.5
40.83707 -28.868462 14.083603 93
41.557873 -28.520979 14.121194 88.833336
42.621273 -28.402466 14.055537 45
43.182396 -28.102314 14.094286 45
43.664307 -27.866816 14.12079 33.5
-4.7402802 -118.69884 15.110909 63
5.446846 -117.11359 15.604186 63
6.6111679 -117.46536 15.198398 63
4.7060547 -116.90965 15.86113 63
23.3472 -72.451828 15.395679 60
24.85672 -71.699356 15.193829 60
25.910583 -71.211639 15.06522 60
26.157444 -71.126266 15.041907 60
19.783276 -62.246407 15.635595 49
20.015858 -62.270794 15.637978 49
28.639519 -52.816616 15.536386 28
38.51569 -31.07761 15.688101 51
38.798393 -30.962883 15.691729 51
39.553326 -30.456697 15.769075 54.25
40.492073 -29.728495 15.899631 25
41.010513 -29.262203 15.994003 25
43.309776 -28.582041 15.947915 36.5
1.6799088 -116.42397 16.879784 63
2.5622101 -116.5698 16.581406 63
3.4560356 -116.68799 16.283073 63
4.0881271 -116.77512 16.071728 63
42.635796 -34.029297 16.101015 23
43.737877 -33.277073 16.213984 23
44.022755 -33.083141 16.243534 23
44.544518 -32.803627 16.270401 23
45.493462 -32.396545 16.283323 23
46.022503 -32.048508 16.336195 23
46.470589 -31.902636 16.326269 22.5
41.801506 -28.853037 16.036819 25
10.044853 -117.62239 17.210884 63
-1.7526703 -116.6021 17.964558 63
-0.59536743 -116.43391 17.608513 63
0.65340042 -116.37575 17.214409 63
24.982309 -71.393524 17.90184 61
25.623995 -71.116997 17.825363 61
26.721115 -70.569481 17.679098 60.333332
28.712025 -69.678116 17.450409 60
29.042934 -69.511276 17.409048 60
33.670067 -69.405991 17.418308 62
34.253212 -69.161858 17.366409 62
30.611511 -68.7957 17.237743 60
31.542641 -68.371811 17.140514 60
32.184139 -68.093002 17.078388 60
34.734333 -68.897842 17.309784 62
35.409637 -68.602325 17.249945 62
32.526543 -67.938751 17.044508 60
20.304483 -61.846653 17.957745 39
32.250889 -60.439178 17.758909 45
43.105751 -34.08149 17.959213 19
39.393452 -31.25388 17.59877 36
39.897606 -30.941422 17.637972 26
43.744534 -29.595177 17.572153 25
-2.5556717 -116.55058 18.229544 63
5.411087 -116.39639 18.931801 63
2.5664215 -116.17111 19.955956 63
3.3426666 -116.19966 19.678902 63
4.3222466 -116.2625 19.327515 63
30.902811 -68.459831 19.950647 59
31.417936 -68.19632 19.888115 59
31.932747 -67.979317 19.839539 59
32.339905 -67.783112 19.795273 59
34.653744 -65.48278 19.23028 56
0.41882706 -116.29202 20.707556 63
1.39254 -116.22613 20.366842 63
2.0326767 -116.17569 20.14485 63
23.34938 -71.91568 20.882759 60
25.102037 -71.102623 20.641954 60
25.611813 -70.849899 20.569626 59
26.485069 -70.433327 20.453123 59
27.180912 -70.120743 20.367968 59
28.720636 -69.472908 20.199411 59
29.035322 -69.269852 20.146032 59
28.833782 -84.852638 24.634491 63
288.96048 -254.0565 42.961876 79
289.3324 -254.16068 42.978157 79
286.81329 -253.29016 42.924168 26
287.46143 -253.43658 42.963112 39.5
288.29504 -253.96893 42.900806 79
289.7153 -253.82387 43.140327 26
290.19165 -253.90979 43.17683 26
288.75543 -255.01721 44.68795 59.5
289.52551 -255.16553 44.747833 66
288.18188 -254.93141 44.636829 66
290.39233 -254.92415 44.933949 35
291.0463 -256.02344 46.766388 53
287.34506 -255.34807 46.448578 52
288.43188 -255.54059 46.5406 52
289.65546 -255.76851 46.644135 52.75
290.37863 -255.90469 46.706284 53
292.57758 -210.07155 52.82188 15.358334
293.04562 -210.05196 52.706432 16.857143
292.74103 -209.9827 52.430038 9.6999998
287.65698 -240.27115 53.146667 16
288.24908 -240.59286 53.161949 23.5
287.88318 -239.90561 53.23914 23
288.41431 -239.52693 53.371914 20.333334
287.63071 -233.63977 53.141228 21.333334
288.67029 -233.5318 53.293118 31.833334
289.52499 -233.70799 53.364899 36.888889
290.483 -233.8087 53.469864 33.333332
290.90503 -232.3401 53.840908 15
291.05774 -231.95178 53.944836 14
291.78552 -210.21391 53.324402 16.75
292.52167 -210.29761 53.563812 27.93125
293.40073 -210.30064 53.487202 19.498013
291.65518 -209.1321 53.79306 3.75
292.12994 -209.06021 53.663651 4.9499998
292.30258 -208.98106 53.297684 3
292.29401 -207.76646 53.879932 12
297.79782 -255.64395 54.740196 42
298.1926 -255.64276 54.480255 42
287.86078 -234.02808 54.281601 22
286.76004 -233.68195 54.214794 25.666666
287.43439 -233.85176 54.262596 29.333334
291.43347 -231.6609 54.05891 24
286.72083 -230.53915 54.771729 8.5
291.49374 -224.09892 54.844349 30.666666
291.34641 -223.65182 54.09668 20
291.48242 -221.27194 54.803116 5
293.65414 -221.7372 54.977871 6
289.86462 -210.53729 54.571838 36
290.31097 -210.56934 54.637665 65.989357
291.8732 -210.70337 54.498829 36.777775
292.49908 -210.55682 54.534081 31.325466
293.15048 -210.74922 54.21191 17.972223
291.56885 -209.30644 54.693134 7.1666665
292.5835 -209.21504 54.878094 6.3333335
290.86166 -208.11256 54.955276 6.7142859
291.22577 -208.62332 54.855461 8.5291672
292.63367 -207.64444 54.482307 19.246794
292.12827 -206.25636 54.861797 11.666667
292.11557 -205.87952 54.926033 17.333334
297.33002 -255.72577 55.050076 42
298.26001 -238.80127 55.895256 23
291.62558 -224.52287 55.614109 39.333332
293.67731 -222.03984 55.679237 8
291.74258 -221.60052 55.507069 23.111113
292.26709 -221.74075 55.546616 16
290.72961 -210.74028 55.169571 93.166664
291.27148 -210.82341 55.391945 21.333332
291.13849 -209.15213 55.232178 7.3333335
292.58597 -209.45836 55.383373 9.507576
290.83917 -208.59897 55.459362 7.8199997
291.24689 -208.57732 55.433758 9.6916676
292.70126 -208.61259 55.415726 16.880556
293.10709 -208.28532 55.924305 11
290.40814 -207.62267 55.748127 8.5
292.853 -207.49353 55.523796 20.549999
290.80731 -206.65094 55.764278 5.7777772
291.50735 -206.63007 55.668133 6.3027778
292.52579 -206.41377 55.483082 21.142681
292.41125 -205.4718 55.527973 21.182005
292.3154 -204.58783 55.608047 24.808756
292.31006 -203.67029 55.812115 33.596527
290.74365 -188.18842 55.94194 9.5
290.62012 -187.53519 55.877827 2.5
290.45798 -186.42302 55.734833 2
290.27859 -185.37651 55.616947 3
289.85223 -184.83569 55.774307 2.6875
290.05777 -184.78857 55.62941 7.5
290.19235 -240.17767 56.269493 19
289.88345 -239.05264 56.347466 18
290.54208 -239.04623 56.435909 18
298.03513 -239.07327 56.05183 15
290.84036 -235.88068 56.810825 55.666668
296.41418 -233.35764 56.801208 19.25
295.79028 -225.68292 56.911251 6
291.77917 -222.0045 56.175594 32.400002
287.3634 -220.30354 56.674644 3
287.38214 -219.56158 56.809891 3
287.41559 -218.59038 56.987995 3
293.84351 -209.0676 56.900764 3
292.43515 -208.27184 56.430218 8.9880953
293.52585 -208.33432 56.620899 21.6
290.74338 -207.53902 56.314129 5
291.36371 -207.19624 56.586143 7.2285714
292.54141 -207.56151 56.439911 9.7372446
293.25421 -207.53673 56.38686 19.822916
290.68655 -206.7892 56.261353 5.5530305
291.26492 -206.77672 56.183472 7.0555553
292.86438 -206.57393 56.301537 22.769047
293.24893 -206.53499 56.659935 31.925848
292.83014 -205.43338 56.269676 29.725855
293.13132 -205.59819 56.722553 33.452217
292.79889 -204.43933 56.465679 35.909199
292.63898 -203.43529 56.447105 43.226463
292.56711 -202.41602 56.58353 49.720535
292.50424 -201.49007 56.705837 53.366211
292.42136 -200.46568 56.800091 57.537724
292.36325 -199.53931 56.864971 50.605572
292.29782 -198.65344 56.917576 47.086224
292.2005 -197.47758 56.949577 42.337162
291.97678 -196.2041 56.775177 26.357143
292.04565 -196.71167 56.808441 32.028572
291.91785 -195.48248 56.816135 25.177778
291.78677 -194.42506 56.750942 18.929628
291.71655 -193.526 56.773426 15.894245
291.57971 -192.51003 56.711777 18.966667
291.38617 -191.40187 56.564819 17.034721
291.28101 -190.49277 56.541676 13.907407
290.91693 -189.23674 56.059998 8.333333
291.17999 -189.47798 56.554237 13.479167
290.90955 -188.39601 56.239529 13.333333
291.11798 -188.5721 56.623852 14.933332
290.83292 -187.46217 56.294338 13.888889
291.06378 -187.56616 56.723251 13.916666
289.55649 -186.16949 56.267319 7.5
290.7944 -186.53497 56.420757 10.777778
288.62433 -185.47018 56.690224 12.8
289.28308 -185.89867 56.379372 11.333333
290.621 -185.51079 56.292953 4.3333335
289.53793 -184.58266 56.602417 16.729761
290.40485 -184.6899 56.516525 7.8888888
290.40625 -180.35674 56.98027 9.333333
297.84302 -240.32379 57.917404 18
298.28156 -240.47786 57.652596 18.5
297.91415 -239.78348 57.822128 18
298.29855 -238.89099 57.496956 17
293.24631 -236.16249 57.533916 17
294.84943 -233.18781 57.807972 30.25
295.44595 -233.19365 57.418491 20.777779
296.09097 -233.28676 57.005371 22
297.52927 -233.14619 57.460827 28.166666
287.36414 -232.13239 57.868637 8
291.11826 -232.22942 57.235119 28
287.79413 -231.94992 57.928413 16
297.53802 -231.73264 57.328526 12
294.84744 -230.93988 57.95562 10
297.5217 -230.6093 57.23877 11
298.914 -229.2179 57.877525 9.5
291.41211 -228.22581 57.700287 32
289.784 -227.87935 57.514355 15
291.81717 -227.73407 57.81142 38.5
291.85135 -226.14557 57.984894 13
293.36749 -223.12303 57.763691 5
295.81729 -223.22098 57.36483 16.5
296.39096 -223.32928 57.4478 26.4375
297.84937 -223.69536 57.650948 5
298.05441 -223.68201 57.692703 6.5
292.55246 -222.93913 57.66 14.388889
295.92572 -220.75642 57.361298 5
296.27875 -220.71841 57.144619 5
287.43204 -217.97859 57.09967 3
287.5318 -216.47339 57.381088 2
287.59668 -215.4368 57.574692 2
287.81143 -213.69714 57.60268 6
292.50235 -212.14351 57.590065 5
292.54962 -211.47992 57.789833 5
292.59079 -210.51302 57.719219 3.7777777
294.34094 -210.27127 57.459885 2
292.65845 -209.79402 57.965076 17.75
294.12076 -209.54706 57.26741 6.2083335
292.64575 -208.38477 57.650661 15.985119
293.91699 -208.46141 57.480221 14.783333
294.14706 -208.58051 57.584038 21.479166
292.64218 -207.46352 57.481052 23.058046
293.74863 -207.52887 57.210632 30.083334
294.11432 -207.44284 57.841957 29.253332
292.67889 -206.48663 57.529217 22.074381
293.73148 -206.46835 57.476414 34.334164
294.0314 -206.89117 57.856842 33.666668
292.7533 -205.67668 57.774261 25.79487
293.65494 -205.48479 57.629211 38.197487
293.41003 -204.48198 57.490479 42.768883
293.21307 -203.45309 57.436935 48.221931
292.9635 -202.53053 57.249722 54.121094
293.22562 -202.42383 57.749794 52.656929
292.81882 -201.42462 57.278954 62.002644
293.11203 -201.38124 57.826153 60.206425
292.78253 -200.47427 57.433456 66.066391
292.71622 -199.57843 57.510742 60.377407
292.62991 -198.57886 57.561657 55.867908
292.53568 -197.50276 57.605656 48.982895
292.37979 -196.51509 57.474728 34.3452
292.27219 -195.49809 57.508999 33.33326
292.16318 -194.53706 57.471806 29.696993
291.9881 -193.22885 57.370903 27.625
292.13025 -193.51009 57.61726 27.218367
291.8876 -192.43407 57.344166 26.183331
292.09189 -192.43758 57.781986 23.777777
291.81665 -191.4413 57.416416 21.804762
292.02646 -191.60651 57.814476 20
291.77646 -190.51968 57.530334 18.158335
287.91049 -189.12512 57.918518 5.333333
291.71097 -189.47675 57.619282 16.166666
291.5769 -188.5446 57.552204 16.24074
291.52179 -187.5914 57.652351 13.833333
291.26059 -186.53551 57.348358 12.583333
287.6377 -185.2294 57.480354 22.645
288.29886 -185.05226 57.445545 32.680553
290.99408 -185.1722 57.0858 11
291.16144 -185.60522 57.338043 12.833333
288.79202 -184.97777 57.136837 24.666666
289.6525 -184.50212 57.193481 3
290.92783 -184.58076 57.069599 11.666667
291.17371 -184.48666 57.577454 14.75
290.79858 -183.51733 57.046478 11
291.05856 -183.41362 57.588261 13.333333
288.75061 -182.22713 57.426971 9.166667
289.29993 -182.62241 57.146862 12
290.83112 -182.67079 57.318542 7
287.88382 -181.31496 57.818195 1.7777777
288.36304 -181.4359 57.549747 2.5555556
290.87097 -181.57793 57.599865 15.333333
287.66965 -180.89319 57.88612 1
288.50345 -180.69165 57.636127 12.761905
289.55328 -180.63048 57.538208 23.6
290.13818 -180.46593 57.432957 25.916666
290.50928 -179.81267 57.723228 11.433333
297.69812 -241.09836 58.081833 19
296.38104 -240.49432 58.876823 18
297.2728 -240.01225 58.253777 18
296.67578 -239.49397 58.590771 17.666666
297.0426 -238.09772 58.223267 16
293.83539 -233.28297 58.483665 30.25
294.29303 -233.23322 58.177258 33
293.48083 -232.48659 58.676678 10
288.5997 -231.49352 58.053188 20.444445
289.21832 -231.15103 58.152119 21.5
289.64685 -230.90997 58.223072 27.75
290.54538 -230.40582 58.377823 27.3125
291.23087 -230.01254 58.501324 27
294.88113 -230.24666 58.036846 9.5
294.92786 -229.36337 58.14119 9
291.61118 -228.66084 58.652321 25.799999
294.96625 -228.45789 58.246704 8
295.01968 -227.61316 58.348686 7.5
292.04785 -226.70645 58.856125 26.5
295.07156 -226.60129 58.46917 7
288.20331 -225.04228 58.464767 4
291.89014 -225.46605 58.062798 18
292.1366 -225.11955 58.982361 33
295.13403 -225.47002 58.605335 6
291.95081 -224.60756 58.163101 20.5
295.58954 -224.03041 58.851421 5.3333335
297.79538 -224.11996 58.427544 6
298.20056 -224.1358 58.507339 6.75
291.99347 -223.61597 58.274933 13
292.47079 -223.32028 58.381584 20.033335
293.42627 -223.56949 58.511047 4
295.69745 -223.73184 58.289097 6.5
296.16138 -223.34322 58.225132 19.333334
296.62054 -222.8757 58.38298 21.75
297.75684 -221.74577 58.783859 10.166667
298.40555 -221.65727 58.93475 30.833332
287.71298 -215.3195 58.117691 2
288.1236 -210.50749 58.47279 7.6428571
292.64014 -210.4978 58.088959 10
288.1665 -209.76595 58.593468 6.0666666
290.20459 -209.71085 58.892208 6.541667
291.35681 -209.77565 58.73576 10.380051
292.60013 -209.54977 58.552162 23.560452
288.26102 -208.46498 58.905682 3.1111109
292.7225 -208.51723 58.577255 22.022421
293.39017 -208.41521 58.404369 15.165751
294.25073 -208.26453 58.069508 15.976192
288.52768 -207.39563 58.898602 5.9333329
292.83136 -207.53885 58.525978 28.782091
294.27005 -207.91196 58.012852 2.3333333
292.84998 -206.48967 58.455154 30.681967
292.87152 -205.43948 58.355705 35.469139
292.94293 -204.59436 58.585762 40.499886
293.01297 -204.39522 58.906738 47.342911
293.04114 -203.71774 58.896255 48.4375
293.11841 -200.48511 58.059353 66.277962
293.07153 -199.62337 58.177807 62.39452
292.88913 -198.07758 58.177292 51.796577
293.07007 -198.58405 58.42342 55.912922
292.86395 -197.47726 58.257671 48.405281
293.0979 -197.43478 58.750977 55.709812
292.81223 -196.46489 58.385567 44.653313
293.04987 -196.52005 58.858208 48.348747
292.7674 -195.42104 58.517384 41.296974
293.00406 -195.80972 58.922123 37.384613
292.61981 -194.43536 58.428295 32.45961
287.6344 -193.35503 58.954056 3.25
292.479 -193.34932 58.37722 28.640476
287.51083 -192.30647 58.920696 5.1111112
292.42004 -192.46057 58.448593 25.893518
287.35516 -191.39633 58.779823 4.4000001
292.3476 -191.53255 58.487228 22.196297
287.26569 -190.49716 58.77224 4.4000001
292.27997 -190.57272 58.552856 20.416666
286.96979 -189.04424 58.415035 4
287.23367 -189.38188 58.541775 5.2698412
292.15945 -189.56731 58.52832 23.314816
287.0459 -188.45418 58.756912 4.25
291.95255 -188.5827 58.323681 25.666666
292.12711 -188.58466 58.716228 16
286.96301 -187.47038 58.634125 6.5555558
291.88794 -187.67491 58.387188 21.333334
292.06772 -187.56445 58.82029 13.666667
286.89001 -186.35899 58.683376 10.333333
291.76453 -186.47099 58.422318 13.8125
292.01898 -186.83858 58.898163 13
286.84586 -185.63344 58.586063 18.809525
287.41245 -185.577 58.492908 20.496033
291.67813 -185.48724 58.442604 10.5
287.9122 -184.78908 58.930534 15
291.54797 -184.57632 58.343891 10.75
291.46548 -183.58823 58.400955 11
291.38373 -182.54376 58.453964 10.833333
291.30865 -181.52264 58.504684 10.75
287.50803 -180.83044 58.379028 19.25
288.59406 -180.81021 58.542137 52.950001
289.60028 -180.82281 58.342449 61.6875
291.21741 -180.48878 58.565048 8.5
291.31436 -179.53702 58.942356 9
290.52686 -178.75742 58.549614 46.113335
289.86511 -177.09677 58.928055 15.5
295.63998 -238.87119 59.207588 17
293.55692 -229.20044 59.655888 9
293.36807 -228.61626 59.725536 9
299.22595 -226.09929 59.363125 7
299.24207 -225.77985 59.405457 7
292.12985 -224.09937 59.053749 12
299.33957 -224.17419 59.624088 6
292.17426 -223.33536 59.115143 13.5
293.70197 -223.96466 59.3279 4
299.37311 -223.56802 59.707535 5.25
292.52295 -222.40964 59.238388 16.5
295.98465 -222.18781 59.909248 3
296.19296 -222.15131 59.956799 3.8
298.32986 -222.27917 59.628307 5.5833335
299.43542 -222.11206 59.905853 4
292.91254 -221.41861 59.375137 12
293.48416 -221.51497 59.469509 15.805556
294.32812 -221.48187 59.629234 24.987499
295.49625 -221.68085 59.47311 20.375
296.34406 -221.38211 59.304844 24.225
297.54169 -221.85168 59.504616 28
298.8667 -221.69891 59.424927 14.75
299.2627 -221.7677 59.908951 4
291.61993 -220.035 59.244701 3
296.92618 -220.92778 59.481247 23.666666
291.44992 -219.0555 59.305935 3
291.43539 -218.28033 59.52063 3
291.22171 -217.67738 59.384892 3
291.13266 -216.34319 59.593319 2
290.91357 -215.5495 59.477608 2
291.18646 -215.45691 59.916183 2
290.84912 -214.49153 59.652958 2
291.03577 -214.58374 59.934074 2
290.8963 -213.67947 59.941227 2
290.64258 -212.53661 59.495674 4.5
289.04346 -210.14243 59.621231 11.5
288.6011 -209.48183 59.354065 11.827401
289.50925 -209.53389 59.395969 26.789339
290.49338 -209.57973 59.225494 22.494873
291.34363 -209.62285 59.12175 24.48889
292.8541 -209.47667 59.047729 11.466667
288.38846 -208.7343 59.543873 5.3333335
290.17612 -208.11218 59.895927 8
291.47754 -208.68176 59.547852 29.548378
292.72571 -208.47144 59.258057 18.617844
288.41879 -207.49736 59.530018 8.166667
289.81464 -207.52519 59.499973 1
292.96329 -207.46468 59.274376 39.518654
293.06277 -207.53815 59.858154 14.565104
288.53928 -206.4464 59.538239 6.9609361
289.65143 -206.37953 59.703541 2.375
292.96277 -206.67715 59.09343 37.431816
293.0462 -206.49426 59.524982 45.094757
288.67947 -205.61003 59.713264 6.0971813
289.47113 -205.44508 59.565277 4.3388805
290.23248 -205.14175 59.364887 1
292.98676 -205.7735 59.047333 34.672226
293.08716 -205.48141 59.540138 43.707832
289.76141 -204.73203 59.775387 4.3336272
290.30194 -204.73756 59.459236 2.3254735
293.1217 -204.47897 59.532413 48.845085
293.15002 -203.54028 59.531067 51.725319
288.62207 -202.04738 59.386021 21.921585
289.16681 -202.73195 59.950363 18.672409
293.21744 -202.66554 59.694019 58.572971
288.73999 -201.42941 59.691517 21.193588
289.33264 -201.1423 59.29129 17.891701
293.30447 -201.66704 59.901531 60.681141
288.63873 -200.50493 59.74511 13.9948
288.57748 -199.55353 59.723404 10.519985
288.50754 -198.57259 59.794804 7.9473948
288.30798 -197.52261 59.569271 8.2733994
288.21729 -196.54736 59.565533 7.1921296
293.17444 -196.55667 59.11253 42.584324
287.96133 -195.46933 59.204838 5.333333
288.17218 -195.55453 59.662823 6.3202662
293.15274 -195.45753 59.319736 37.165894
287.91058 -194.48671 59.304157 4.53125
288.10703 -194.55186 59.727806 5.7233338
292.9259 -194.34114 59.088657 38.395832
293.17221 -194.50241 59.568329 37.832615
287.84103 -193.50574 59.37915 3.875
288.09952 -193.52771 59.934612 6.7222219
292.83426 -193.4165 59.102108 37.5
293.11377 -193.45934 59.670033 31.790277
287.79605 -192.46214 59.50885 5
288.0256 -192.73387 59.93689 6
292.8421 -192.47697 59.311176 29.889999
293.09653 -192.73576 59.785694 24.583334
287.6449 -191.56096 59.366611 5.3611107
292.79001 -191.5809 59.370602 27.869049
293.06921 -191.66467 59.9487 21.766666
287.62988 -190.51884 59.536507 5.1428571
292.74509 -190.51207 59.517109 27.09524
287.54291 -189.51244 59.583485 4.5
292.56839 -189.43221 59.403339 20.888887
287.38956 -188.48222 59.5028 3.7142856
292.50943 -188.54657 59.495125 20.645832
287.32407 -187.55782 59.593895 3.5
292.34445 -187.58362 59.371063 17.5
286.97348 -186.38533 59.029739 6.6666665
287.233 -186.64818 59.612957 4.1999998
292.31863 -186.5367 59.567505 15.928572
287.15619 -185.57823 59.684166 4.1999998
291.93881 -185.34578 59.045506 9
292.27954 -185.60339 59.688202 14.8
287.32901 -184.69531 59.519611 9.8857145
291.89212 -184.4467 59.133129 9.333333
292.16211 -184.74463 59.603977 15.5
287.07904 -183.49475 59.989151 5
291.83337 -183.46928 59.233154 10
292.11792 -183.57286 59.755455 12
286.9826 -182.5312 59.992363 6
287.04736 -182.4178 59.948868 11
291.76782 -182.26373 59.3521 9
292.07687 -182.60954 59.882893 10.666667
287.47125 -181.27188 59.639107 58.842857
288.16776 -181.02644 59.216549 69.400002
291.72424 -181.40491 59.434883 8
292.04968 -181.7722 59.988468 8
288.47479 -180.98648 59.0317 69.199997
291.67114 -180.55841 59.522659 8
291.42795 -179.25703 59.756805 60.25
290.65112 -178.96368 59.36467 71.604164
291.22101 -178.90369 59.015194 61.666668
289.76114 -177.99579 59.931728 10
290.19263 -177.88313 59.67141 7.083333
288.47366 -176.6239 59.762089 77.0625
289.44202 -176.55972 59.176464 43.625
299.49652 -224.26765 60.537346 5
299.53925 -223.65457 60.604538 4.166667
296.37888 -222.04042 60.006073 3
299.62112 -222.22501 60.760231 4
296.42508 -221.52475 60.058784 14.666666
299.61264 -221.4314 60.572857 4.0555558
296.48102 -220.47711 60.158936 14.166666
298.34052 -220.54803 60.595715 4
299.71729 -220.20273 60.985729 3
296.62134 -219.67799 60.259399 21.444445
297.17749 -219.21252 60.431862 12.083333
299.18564 -219.82887 60.881802 3
290.63577 -208.69281 60.197998 22.507576
290.27396 -207.44708 60.208115 9.5583334
293.134 -207.20735 60.271496 5.9166665
290.14606 -206.44531 60.268269 7.875
293.15582 -206.47247 60.363174 16.432686
289.49728 -205.21536 60.106682 4.5119047
293.24622 -205.51085 60.500374 42.735184
289.74765 -204.60306 60.122883 6.25
293.29407 -204.49538 60.544579 49.42942
288.67007 -203.3559 60.158909 13.93332
293.31247 -203.59558 60.479385 53.195122
288.65915 -202.33672 60.303577 27.463556
289.18546 -202.69682 60.190159 16.793808
293.37061 -202.44746 60.50246 59.417053
288.81006 -201.54134 60.261784 19.069281
289.21463 -201.82268 60.217804 15.210176
293.4118 -201.47937 60.449501 57.447731
288.77554 -200.51886 60.457226 12.367822
293.4736 -200.48212 60.519547 55.527016
288.82761 -199.51468 60.447067 9.7150402
293.5563 -199.4857 60.646564 49.987728
288.85773 -198.48511 60.500847 7.3353696
289.00491 -198.47726 60.924149 8.8764706
293.64276 -198.41476 60.761723 39.060387
288.79712 -197.5927 60.422386 7.2507734
289.01364 -197.32611 60.772808 9.8602867
293.70758 -197.48412 60.781971 29.744278
288.63098 -196.52477 60.4814 6.6154804
289.07135 -196.42239 60.562084 6.8595634
293.79758 -196.47095 60.892197 25.565872
288.56134 -195.42084 60.54385 5.9007936
289.16071 -195.4604 60.643093 5.3128967
293.86426 -195.59792 60.857208 19.755554
288.46194 -194.47243 60.527378 5.9571428
289.24207 -194.50475 60.686337 4.171875
293.9585 -194.49777 60.937565 16.166666
288.31314 -193.43915 60.440613 5.9791665
289.30118 -193.56619 60.595043 4.3666668
293.33575 -193.58249 60.10704 26.199406
294.01443 -193.74622 60.988838 14.5
288.21103 -192.48137 60.417969 6.2666664
289.38531 -192.57198 60.664341 4.8055558
293.34644 -192.44885 60.370914 25.128572
288.18863 -191.47485 60.561661 6.30303
289.5134 -191.42041 60.691055 5.9583335
293.32214 -191.46593 60.534302 22.348486
287.95117 -190.29387 60.281231 5.3333335
288.18152 -190.69884 60.709187 5
289.61295 -190.65654 60.766327 9.6999998
290.35284 -190.53329 60.745934 14.745455
292.97644 -190.05103 60.111355 32
293.19879 -190.58179 60.46632 20.916666
287.86841 -189.4183 60.317501 6
288.04715 -189.56555 60.674873 5.75
289.72113 -189.60959 60.669609 9.5
292.89072 -189.45204 60.073826 38.444443
293.14893 -189.44484 60.644871 18.666666
287.89044 -188.49597 60.593376 5.1999998
289.80557 -188.54327 60.720448 8.333333
292.88815 -188.40605 60.314671 32.666668
293.07208 -188.46892 60.711277 18.222221
287.76831 -187.5217 60.565002 4.8000002
289.91107 -187.89685 60.760525 6.3333335
292.79031 -187.46886 60.349396 24.142857
293.07776 -187.74812 60.903149 17.333334
287.72571 -186.51364 60.708294 2.5999999
291.03796 -186.67543 60.982574 3.3333333
292.77313 -186.35599 60.552521 15.75
287.62213 -185.48347 60.718731 3
292.69519 -185.48373 60.588844 17.200001
287.40475 -184.40393 60.516823 5
292.51083 -184.42139 60.438145 12.333333
287.32602 -183.51173 60.549816 6
292.46552 -183.49963 60.547657 10.8
287.24744 -182.5833 60.582165 4.5
292.48331 -182.65741 60.743813 11
287.21841 -181.44411 60.582359 14.5
292.25583 -181.46043 60.489712 10
287.20242 -180.69272 60.580601 8
288.28949 -180.70966 60.753887 17.714287
291.97772 -180.04251 60.216003 9
292.15714 -180.53717 60.472191 10
287.10092 -179.61598 60.623882 4
290.83557 -179.12372 60.129345 66.699997
291.56244 -179.29721 60.549877 67.657143
292.2746 -179.79774 60.922958 12
287.01773 -178.64153 60.658028 4
288.58041 -178.20142 60.640518 73.833336
289.31079 -178.08125 60.202835 43
286.8999 -177.36549 60.707813 5
289.7886 -177.01109 60.905487 98.5
286.90704 -176.91614 60.696495 59
287.5239 -176.86014 60.331688 89.666672
290.33511 -176.92902 60.577606 83.833336
299.83484 -219.46825 61.09383 3.7777779
293.40436 -203.59149 61.059349 53.942783
293.4855 -202.54074 61.257099 51.772758
293.56973 -201.48549 61.46735 56.700447
288.83069 -200.0896 61.117203 9
293.63901 -200.42343 61.533733 52.989826
288.91089 -199.33455 61.408627 8.2493391
293.67981 -199.53012 61.480408 50.223541
288.94788 -198.63641 61.257973 7.6650996
289.02667 -198.37302 61.706505 6.8422484
293.73846 -198.51463 61.474716 44.940823
288.97632 -197.38838 61.076824 7.4291015
289.07797 -197.44705 61.453163 7.255105
293.81604 -197.4944 61.547585 36.54961
288.94684 -196.39388 61.198124 6.5535355
289.15515 -196.45645 61.587593 6.8907042
293.8858 -196.54834 61.533916 29.969381
288.90686 -195.36896 61.306931 6.8117561
289.20099 -195.51416 61.598934 7.0947275
293.9379 -195.52605 61.382107 21.190079
294.02118 -195.33554 61.894123 30.455357
288.80441 -194.31029 61.302715 5.9416671
289.24579 -194.50871 61.592976 5.8666668
293.97293 -194.64784 61.151783 17.213888
294.06348 -194.39757 61.692036 22.267004
288.78906 -193.40407 61.474834 5.1309519
289.41351 -193.49301 61.513374 5.4895835
294.07782 -193.55327 61.404804 19.202084
288.72955 -192.5177 61.50803 6.0740738
289.48511 -192.47566 61.454185 5.9375
294.15237 -192.46402 61.363007 16.941668
288.64316 -191.60905 61.501274 6.1904759
289.56161 -191.55223 61.478783 5.8333335
294.23221 -191.55118 61.498993 15.3625
288.56622 -190.50533 61.573978 5.020833
289.7066 -190.53514 61.468563 8.5051022
290.22009 -190.41591 61.11908 18
293.52258 -190.37531 61.202515 21.049999
294.30322 -190.57854 61.528801 14.785715
288.37436 -189.51088 61.420513 4.4285712
289.77908 -189.70863 61.687733 6.7444444
290.43958 -189.65053 61.366142 19.395832
293.51334 -189.50781 61.395157 17.291666
294.36084 -189.49606 61.42033 11.2
288.32782 -188.60118 61.543865 3.8571429
293.45038 -188.51717 61.482201 15.3
294.44507 -188.55037 61.532192 10.916667
288.16626 -187.46678 61.48251 3.5
293.37125 -187.48746 61.562813 12.944445
294.5174 -187.51176 61.564079 7.9523811
287.98029 -186.22612 61.398174 3
288.14777 -186.45496 61.68158 3
291.6214 -186.44141 61.073311 2.8
292.59973 -186.43935 61.199749 7.3333335
293.28351 -186.44798 61.38269 12.188312
294.56403 -186.34286 61.954201 14.158333
287.94809 -185.58722 61.459427 3
288.19705 -185.72005 61.925121 3
291.55807 -185.61247 61.425194 11.24
292.51218 -185.59274 61.535603 11.68512
293.42975 -185.73781 61.63728 16.148809
294.43399 -185.66125 61.420788 9.083333
287.76282 -184.42332 61.308426 3
292.8988 -184.65785 61.169323 22.333334
293.15918 -184.58084 61.715675 12.5
287.73337 -183.3726 61.495972 3
292.90024 -183.44469 61.448044 18.5
293.1669 -183.69312 61.95314 15
287.58688 -182.38692 61.382427 3
292.77838 -182.31291 61.396225 13.25
287.56418 -181.45334 61.559669 4
292.77985 -181.49391 61.566372 15.75
287.68005 -180.59349 61.674824 13.84127
292.6145 -180.58031 61.437191 14.5
287.82422 -179.22644 61.950188 8.166667
292.47754 -179.58038 61.412945 7.3333335
288.13257 -178.51044 61.811077 10
289.41147 -178.41653 61.959366 11
292.39297 -178.52667 61.496162 67.5
288.57162 -177.16682 61.633518 91.866669
289.31857 -177.06621 61.187565 97.777779
290.45685 -177.09462 61.460552 56.333332
291.30313 -177.14247 61.519176 65.479996
292.2207 -177.10342 61.352962 74.5
289.85825 -176.5835 61.880711 20
290.01544 -176.84579 61.756824 6
292.16162 -176.0997 61.53701 26.5
293.71448 -200.58102 62.15332 61.10603
293.8327 -199.40045 62.52113 48.6087
289.08072 -198.24474 62.051834 6.0689754
293.89514 -198.43982 62.555237 43.503117
289.19534 -197.54303 62.487961 7.086338
293.93991 -197.47296 62.433102 39.27375
294.01404 -197.25505 62.913612 41.666664
289.27707 -196.5585 62.484276 6.8106356
293.96646 -196.56091 62.211941 28.78182
294.03397 -196.60497 62.680256 33.934414
289.36612 -195.48204 62.466206 6.6797624
294.09082 -195.5587 62.582249 27.625881
289.32639 -194.46666 62.313587 6.5482144
294.14963 -194.60063 62.540234 23.431946
289.35486 -193.49707 62.390926 5.9940476
294.2269 -193.48938 62.470608 21.08889
289.40549 -192.5432 62.513893 6.0441175
294.30841 -192.47 62.48045 19.366667
288.82837 -191.03795 62.011036 6.3333335
289.39081 -191.54608 62.493019 5.875
294.37357 -191.57777 62.52507 17.458334
288.87048 -190.39351 62.230858 8.75
289.49005 -190.59462 62.651352 5.409091
294.44693 -190.46761 62.492485 16.611109
288.81381 -189.41142 62.365292 7.375
289.62024 -189.47823 62.649323 4.8000002
294.48111 -189.59697 62.352966 14.305556
288.79996 -188.59961 62.543289 6
289.939 -188.34599 62.386257 5.708333
294.56818 -188.58194 62.463066 13.5
288.63519 -187.57892 62.460014 5.4000001
289.99139 -187.71951 62.74374 4
290.0618 -187.29932 62.488064 7
293.73502 -187.58606 62.286976 12.333333
294.66763 -187.5751 62.693939 11.1
288.54425 -186.59859 62.515873 5
290.1489 -186.57133 62.608913 12.333333
293.6951 -186.50865 62.424824 10.833333
294.70834 -186.68253 62.486389 8.5
288.44788 -185.53203 62.557243 4.5999999
290.50714 -185.51207 62.323227 12.5
291.52698 -185.79565 62.194366 31.320833
292.6297 -185.74364 62.35128 8.229167
293.57394 -185.55872 62.558716 7.3333335
294.8118 -185.54729 62.625309 9.5
288.29285 -184.60565 62.435955 4.6666665
293.55069 -184.64534 62.508957 10.75
294.88052 -184.49382 62.750847 3.25
288.09241 -183.66885 62.206543 4
293.58405 -183.62503 62.610691 10.598214
288.05188 -182.51474 62.353714 4
293.3869 -182.46956 62.626587 11
294.33054 -182.23901 62.938854 3
295.06458 -182.7341 62.966866 1
288.02087 -181.51978 62.478104 4
293.2316 -181.50053 62.512844 12.333333
287.98999 -180.76405 62.577133 4
288.32117 -180.22983 62.432053 20.104166
292.91907 -180.5472 62.105206 18.333334
293.2326 -180.50696 62.78405 30
288.85355 -179.91299 62.141155 12.5
292.91177 -179.6721 62.311768 19
289.52829 -178.61938 62.782745 9.5
290.25772 -178.50075 62.351475 6
291.064 -178.60805 62.76194 9
292.90387 -178.71928 62.536766 100
288.85327 -177.36615 62.411255 26
289.81171 -177.43256 62.783249 70.75
290.11859 -177.46324 62.590023 7
292.77219 -177.36885 62.436646 72.25
288.89795 -176.64488 62.460464 32.25
289.40948 -176.57593 62.155613 37.208336
290.41867 -176.55779 62.539124 26.666666
291.57187 -176.63359 62.655685 37.333332
292.54446 -176.26872 62.294903 48
292.27863 -171.86929 62.088905 15.666666
293.97488 -198.56688 63.211163 48.694443
294.0144 -198.29555 63.368061 46.314682
294.08704 -197.55743 63.530972 38.995239
289.39645 -196.33763 63.28701 6.4923811
294.1488 -196.4984 63.481438 38.609348
289.48788 -195.43999 63.477695 6.1009259
294.23212 -195.46873 63.568138 33.291073
289.56137 -194.47409 63.497078 6.1666665
294.30106 -194.47081 63.50877 25.0875
289.64178 -193.50977 63.487099 7.536458
294.36835 -193.46725 63.472679 22.00119
289.70203 -192.47858 63.482746 6.1851854
294.44028 -192.65939 63.618629 18.168335
289.67633 -191.52525 63.399971 4.9285712
294.50171 -191.47301 63.459511 20.703125
289.62195 -190.42818 63.476879 4.8235292
294.57867 -190.52754 63.564613 23.166668
289.70718 -189.4745 63.561069 4.4285712
290.0033 -189.17195 63.858696 3
294.64001 -189.55121 63.523251 17.0625
289.3974 -188.58456 63.354813 4.625
290.0332 -188.56642 63.711018 4
294.71674 -188.4843 63.568443 13.333333
288.88647 -187.22572 63.070465 7
289.17078 -187.50772 63.647236 3.2
290.09561 -187.51164 63.567524 5.5
294.79492 -187.50618 63.587505 13.875
288.87805 -186.53378 63.236069 7
289.10455 -186.4444 63.743477 4.5
290.45209 -186.50053 63.21637 18.416666
291.09875 -186.33086 63.165417 10
294.85846 -186.46335 63.426262 13.5
288.8754 -185.56827 63.461304 7
289.11057 -185.70125 63.944031 5
290.30396 -185.32353 63.808548 8.333333
291.33786 -185.69806 63.31382 26
293.91183 -185.19516 63.144485 8
294.93216 -185.57671 63.523926 12.5
295.01105 -185.17657 63.906151 14
288.74078 -184.44505 63.454617 6.5
293.96017 -184.46739 63.409603 10
294.97018 -184.60527 63.372673 11.5
295.04892 -184.83832 63.972374 14
288.73474 -183.53984 63.650368 7
