# .PCD v0.7 - Point Cloud Data file format
VERSION 0.7
FIELDS x y z intensity
SIZE 4 4 4 4
TYPE F F F F
COUNT 1 1 1 1
WIDTH 1245
HEIGHT 1
VIEWPOINT 0 0 0 1 0 0 0
POINTS 1245
DATA ascii
-4.9055319 2.6364093 -28.515762 4.5048699
-9.5216246 3.4752681 -28.282381 6.5750003
-4.6932726 3.5054214 -28.478458 3.6458335
0.27693596 3.8675728 -28.116137 12.876544
-12.530095 4.7518582 -28.933464 9.166667
-10.850034 4.3883843 -28.699503 6.5
-9.4213228 4.5071898 -28.376577 6.3149953
-5.1275864 4.7600374 -28.358696 1
-4.4288235 4.4922533 -28.543182 9.6692619
-3.7276268 4.8741302 -28.425709 14.345965
-2.4379497 4.6849055 -28.554665 3.8864467
-1.7118237 4.8461657 -28.76088 17.203472
-0.35256037 4.9475245 -28.42065 5.4519567
0.42923376 4.6375804 -28.294456 6.9186478
1.0263249 4.7746806 -28.007174 6
-11.171506 5.6800585 -28.979856 5
-9.6191034 5.2288704 -28.742929 5.311111
-3.4600008 5.5538964 -28.576754 16.489948
-2.2795696 5.4178147 -28.423315 6.0194116
-1.3809744 5.2602525 -28.483339 7.3558464
-0.66724133 5.2211089 -28.57736 6.6919403
0.60560054 5.3965483 -28.414005 5.2936506
1.1657239 5.1840425 -28.11928 1
-10.543429 6.5730453 -28.496132 4
-9.4123182 6.4237761 -28.411705 5.875
-7.717463 6.3382592 -28.076075 3
-3.5395756 6.2363749 -28.248173 20.172468
-1.5279995 6.1624207 -28.870871 9.6111116
-0.66430551 6.3336101 -28.85704 7.2527776
0.55861676 6.4903746 -28.462994 8.3326006
1.2729515 6.4410496 -28.467049 3.5
-8.9588499 7.330514 -28.692106 4.3125
-3.7205276 7.3911781 -28.678942 2.8680553
-1.3356981 7.6476479 -28.5916 5.6497688
-0.66673398 7.6790643 -28.28989 4.4375
0.53526706 7.5734658 -28.405369 4.9259257
1.3716325 7.3080444 -28.460403 3.3333335
-3.3909891 8.4290581 -28.558943 4.0277777
-2.6698151 8.5368404 -28.618847 8.6600513
-1.1153718 8.4104567 -28.723843 5.2638888
0.31963572 8.1393452 -28.413061 1
-3.276475 9.7642937 -28.169546 3.5
-2.4999638 9.4012394 -28.319641 14.409723
0.64043856 9.4765692 -28.524647 8.6062498
1.2216189 9.4279728 -28.30014 5.3874998
-5.2887921 10.650826 -28.52182 2.5
-4.7628779 10.535579 -28.557409 2.6666667
-2.3302705 10.906546 -28.458502 9.8416672
-1.0009677 10.776258 -28.26301 2
-0.34392703 10.372597 -28.454721 3.25
0.49824971 10.427765 -28.420788 4.23
1.5267252 10.610313 -28.531679 10
-6.8562536 11.025356 -28.383951 3
-2.5786157 11.514815 -28.191113 22.262501
-1.9810743 11.203612 -28.467163 2.8333333
0.39380103 11.736914 -28.59129 15.02
-2.3004806 12.220853 -28.064354 19
-1.6870011 12.285449 -28.548231 2.2916667
-0.72275394 12.098144 -28.433367 9.333333
-1.7710612 17.893995 -28.6154 8.958333
-3.006768 18.678024 -28.711941 5
-2.4320493 18.474728 -28.42985 15.833334
-1.8840821 18.544521 -28.050064 21.125
-3.3679831 19.68331 -28.586273 12.833333
-2.7934666 19.812067 -28.140448 28
-4.3288937 20.201117 -28.597284 22.973331
-3.7322814 20.074604 -28.512241 23.066666
-6.5836291 -29.021978 -27.85298 100
-7.4053593 -28.702347 -27.897549 30
-7.9528189 -27.838972 -27.919809 17
-7.8097677 -24.236862 -27.857042 4
-5.0725889 -23.013601 -27.654789 28
-7.4715624 -22.287434 -27.805632 19
-6.1945338 -22.760109 -27.720263 24
-5.1283464 -22.058374 -27.64073 79.75
-4.5423212 -22.445974 -27.614599 76.044441
-3.2636466 -22.526226 -27.553188 65.224998
-2.6105142 -22.423054 -27.524055 56
-8.3998032 -21.239143 -27.45499 98.237503
-7.6130333 -21.40443 -27.640676 49.133331
-6.2247257 -21.713003 -27.705833 3
-5.3156648 -21.998249 -27.651011 100
-2.2686021 -21.76037 -27.496645 18.666668
-1.6278462 -21.650385 -27.473274 21.666666
-10.115105 -20.456816 -27.19664 20.25
-9.5078058 -20.77162 -27.472736 64.116669
-8.8362541 -20.019726 -27.900709 2
-7.0132594 -20.388277 -27.746048 2
-6.541893 -20.496679 -27.71166 4.7333331
-5.9863753 -20.651106 -27.673018 10
-3.499728 -20.546833 -27.522898 21.666666
-8.6385841 -19.95903 -27.40543 34.366665
-9.1453333 -17.045774 -27.923229 10
-8.6395178 -17.118168 -27.165863 2
-9.4371834 -16.570625 -27.489166 24.953703
-8.5662813 -16.770561 -27.515581 32.075001
-9.5653582 -15.562878 -27.640451 7.5
-0.64875031 -15.215863 -27.669638 9.5
-9.3459768 -14.87091 -27.305162 13
-0.3368133 -14.354942 -27.533594 15.166667
0.20962664 -14.486042 -27.52824 52.479164
-0.17772301 -13.976914 -27.600336 17.966667
-8.3603897 -12.459785 -27.602057 19.199999
-7.9847755 -12.522765 -27.809082 16
-9.1047077 -11.893232 -27.959038 3
-8.7143412 -11.683031 -27.600201 6.7714286
-8.4351397 -10.56285 -27.555616 2.3333333
0.53424364 -10.555881 -27.495453 16.444445
1.4103149 -10.151052 -27.535833 36.543652
2.049335 -10.750886 -27.17296 8
6.5226536 -10.331943 -27.204411 1
0.82772768 -9.5636215 -27.51598 20.290909
1.5472692 -9.717289 -27.487534 17.103348
6.5896549 -9.5889111 -27.204815 1.6666667
-7.3714352 -8.1710424 -27.518984 15.833333
-6.9434552 -8.1529741 -27.636023 13.0625
5.4179602 -8.0375996 -27.498705 1.375
6.7510958 -8.6000614 -27.213526 1.6821429
-10.040011 -7.3242979 -27.783796 5.5
-9.7674465 -7.394392 -27.740181 5
-8.2097406 -7.4103713 -27.527441 5.6666665
-7.4951978 -7.6334357 -27.451674 17.300795
5.5648813 -7.4638386 -27.489861 1
6.8131895 -7.481585 -27.223938 2.0625
-8.4929876 -6.7090054 -27.612238 3.4583335
-7.390903 -6.4766321 -27.508066 7.9000006
1.6405027 -6.2021313 -27.344574 32.586605
4.6652398 -6.3153534 -27.682106 2.060606
5.7298203 -6.452837 -27.476646 1.3962961
6.9535375 -6.5065145 -27.246517 1.8333334
-7.1320939 -5.5928817 -27.573538 8.0642862
-6.9388638 -5.1405902 -27.396162 22.047617
1.7926735 -5.4085026 -27.290932 13.75
3.9207952 -5.2332158 -27.796192 3
4.8588467 -5.4874673 -27.652441 2
5.8617163 -5.3974586 -27.471031 1.1071428
6.8969278 -5.441288 -27.265125 1.65
7.9590588 -5.0393457 -27.041849 2
8.0858831 -5.5826831 -27.017984 2
-6.8452401 -4.8794413 -27.187019 29.571428
-5.8725185 -4.0484982 -27.579367 6.6666665
1.9161294 -4.8973708 -27.356245 14.404545
2.417258 -4.4398994 -27.36371 17.828661
3.2596061 -4.4357853 -27.431738 8.6674242
4.5048509 -4.4974713 -27.698147 2.0999999
5.5989723 -4.4004531 -27.496759 0.30357143
6.7422085 -4.4024415 -27.283503 1.8047137
7.8327007 -4.5011196 -27.067514 2.25
-9.1028242 -3.6836352 -27.964678 4.4000001
-8.520484 -3.3685586 -27.849253 4.1666665
-7.6368904 -3.157737 -27.46464 7.6666665
-6.4613328 -3.3087316 -27.530457 19.843182
-5.8235559 -3.8252776 -27.566923 8.5617542
4.3777223 -3.6434143 -27.726316 2.5343914
5.4878311 -3.3772562 -27.526354 0.59762937
6.6516643 -3.5931482 -27.308392 1.0178571
7.5835495 -3.5127704 -27.118984 2.2884617
-9.1942339 -2.2498264 -27.780472 5.2857141
-8.5151987 -2.5951042 -27.727638 3.4166665
-7.5929093 -2.6847649 -27.516115 7.6111107
-6.4145341 -2.444854 -27.578417 5.8954544
4.5661306 -2.4311543 -27.705954 2.5722489
5.4072561 -2.3886368 -27.545279 1.0563564
6.4479251 -2.4927878 -27.347988 0.625
7.3162937 -2.4073749 -27.18759 1
8.2756395 -2.1129541 -27.005611 1
-10.090436 -1.5326737 -27.999466 4.75
-9.5517941 -1.8935884 -27.876261 5
-8.5295343 -1.7341763 -27.428291 2.3888891
-7.8200703 -1.0110006 -27.464209 6.1666665
-6.1227465 -1.5173689 -27.509771 7.383275
-5.9895363 -1.2311481 -27.978909 0
4.6019335 -1.385085 -27.709972 3.3110528
5.3252859 -1.4675207 -27.570312 1.1817356
6.4196172 -1.4312474 -27.36557 0.68235296
7.4341059 -1.5052891 -27.177479 1
8.1028538 -1.7029393 -27.042091 1
-8.0486574 -0.13929099 -27.621565 4
-7.7519851 -0.49514851 -27.536028 5.9481483
-6.0189257 -0.78724015 -27.317545 3
-5.8652434 -0.46473718 -27.507212 6.4940686
4.7582583 -0.44697642 -27.693892 3.9665835
5.5506554 -0.42351666 -27.548431 1.4182659
6.4294519 -0.60659993 -27.378885 0.92748916
7.6483245 -0.52269942 -27.158773 1
-5.4397702 0.52514201 -27.453421 19.335318
-4.7298431 0.56094605 -27.536131 34.521812
4.528904 0.49954081 -27.759449 4.3876705
5.4182901 0.52581328 -27.600006 2.4215908
6.4519105 0.64722133 -27.411133 1.5528138
7.2388306 0.37626058 -27.254992 1
8.2607002 0.53559136 -27.06562 1.0384616
-7.7543201 1.8779637 -27.631351 4
-6.4793167 1.8383863 -27.439356 4.9499998
-5.3130693 1.5172459 -27.546406 14.96092
1.3753797 1.2612211 -27.03788 1
2.8930457 1.4706671 -27.536179 31.12829
3.7882371 1.6175269 -27.612408 9.9722223
4.3559451 1.4795022 -27.590565 8.5415573
5.4979477 1.4929631 -27.616232 3.4092858
6.5936294 1.4744679 -27.412857 1.1970899
7.6663556 1.5240537 -27.196877 1
-8.3942146 2.534668 -27.786499 7.7142859
-7.8004274 2.390295 -27.421658 3
-6.9650593 2.507154 -27.482981 6.6958036
-5.1250224 2.5020063 -27.522543 15.209436
-4.9946032 2.8149283 -27.879925 4.75
3.8595176 2.8566906 -27.229502 16.700352
7.3458509 2.0707026 -27.27352 1
8.5922279 2.2763205 -27.045746 3
-9.0083189 3.1480494 -27.933392 7.1666665
-7.2656074 3.634443 -27.514734 5.1704545
-6.7296243 3.7345085 -27.334843 7.6666665
-5.016994 3.2549617 -27.26527 4
-4.8798528 3.42061 -27.56661 9.1222305
0.072745219 3.9624724 -27.817928 8
4.4639196 3.6015747 -27.566046 5.8814354
5.1309404 3.9788876 -27.551872 9.25
-8.1574078 4.691412 -27.814947 4.125
-7.7008691 4.4334879 -27.681873 5
-6.5651302 4.6685719 -27.584604 5.7814102
-5.4553137 4.661953 -27.516691 6.0605159
-4.5393567 4.5594497 -27.624849 12.479313
-3.7229972 4.8328371 -27.599396 14.296086
-0.3000297 4.6548266 -27.907343 3.7777779
0.48302078 4.412209 -27.712605 3.8531229
1.0138564 4.8065839 -27.690338 4.9791665
4.8236008 4.4392443 -27.632902 9.1428576
5.3073034 4.5539331 -27.542358 8.6875
-8.6130762 5.2772655 -27.926363 4.3333335
-7.4346123 5.7945485 -27.976793 3
-6.6638498 5.3870783 -27.431814 5
-5.870759 5.4171982 -27.585894 6
-4.2435441 5.3221107 -27.388496 36.986111
-3.572185 5.2005749 -27.545294 18.957232
-0.74408609 5.0432329 -27.978622 3.5
0.5181706 5.1191721 -27.649263 6.7142859
1.2001877 5.1765156 -27.637589 29.363762
5.4845052 5.0353627 -27.517097 8
6.5026727 5.1881433 -27.526693 3.5833333
7.7327514 5.8568287 -27.303701 1
-4.0240479 6.191391 -27.437574 35.738098
-3.5718613 6.6667929 -27.620039 20.688885
0.75784063 6.7071052 -27.78698 2.5
7.3476868 6.3509641 -27.389412 1.25
-4.0680323 7.2523055 -27.275955 5.5
-3.3319325 7.4295354 -27.397783 13.564686
-2.9226415 7.8175006 -27.71575 18.785715
-0.099620312 7.0858517 -27.979122 5
0.50756675 7.4152637 -27.801172 4.1388888
1.6921651 7.0852194 -27.475262 17.333334
8.8024521 7.8206806 -27.148745 5
9.0157146 7.5432034 -27.101385 5
-3.7001641 8.4717789 -27.521011 5.2666664
-2.7668815 8.1390324 -27.942276 13.375
1.1437795 8.9906921 -27.972975 3.5
-6.194839 9.923604 -27.823841 5
-5.6248674 9.3794737 -27.398571 8
-3.4098141 9.3866768 -27.402555 9.2243586
-2.6188035 9.4767475 -27.596069 14.519156
0.61841124 9.9091349 -27.35643 10.333333
1.3153985 9.7448778 -27.427931 9.53125
-6.4699807 10.645587 -27.899794 7
-5.7805543 10.186583 -27.458462 10
-4.0854516 10.324805 -27.384476 13.733334
-3.6463161 10.140155 -27.543446 8.3703699
-2.808239 10.943531 -27.752506 21.166668
0.68268198 10.459599 -27.503807 12.532967
1.4207059 10.498409 -27.501535 12.891534
-2.7345228 11.418527 -27.545641 29.047916
-0.081011027 11.914431 -27.507099 52.125
0.60004783 11.296063 -27.855455 24.606062
1.8673128 11.375281 -27.481087 41.069443
2.4180195 11.328036 -27.451391 73.797989
3.107408 11.157236 -27.070187 81.777779
-2.6032259 12.117467 -27.368093 34.666668
-0.72048748 12.069564 -27.476055 38.272572
-2.2569768 18.580982 -27.425411 38.125
-1.9024768 18.608778 -27.423775 25.833334
-3.2312407 19.911304 -27.46722 58.049999
-2.6945591 19.78978 -27.462597 57.5
2.6380434 19.046324 -27.323895 16.5
-4.4084692 20.199387 -27.472385 62.849998
-3.795244 20.048725 -27.4708 61.200001
-2.8989675 -36.40134 -26.547543 9
0.669478 -30.248617 -26.550459 47.111111
1.1462831 -30.377771 -26.544769 36.75
-2.4364207 -29.703638 -26.614151 13
-1.911904 -29.866768 -26.598747 6
-6.7261543 -28.941216 -26.79158 20
-8.683094 -26.643715 -26.944149 12
-6.2445517 -25.972773 -26.814264 12.25
-8.1188488 -24.378117 -26.952652 10
-7.6953554 -22.182243 -26.458881 35.639999
-6.5901103 -22.416336 -26.047043 48.25
-5.545424 -22.788126 -26.547602 30.361109
-4.4908977 -22.218933 -26.785814 91.333336
-3.5688396 -22.459461 -26.742537 81.162498
-2.4262846 -22.580294 -26.69961 61.955555
-1.8360078 -22.201618 -26.686579 19.5
-8.6440086 -21.211676 -26.225569 100
-7.8704567 -21.394943 -26.445326 96.333336
-6.4412971 -21.727287 -26.486818 65.416664
-5.2450986 -21.982534 -26.006678 27
-1.9353342 -21.973135 -26.692091 21
-10.177303 -20.549986 -26.364342 36.125
-9.8315563 -20.902021 -26.319843 66.199997
-8.6449394 -20.030663 -26.29216 9
-6.296926 -20.597132 -26.910749 3
-5.4674454 -20.806404 -26.467169 6.1666665
-4.7525539 -20.968412 -26.036266 10.8
-10.060262 -19.916624 -26.394096 23
-9.542223 -19.757095 -26.368114 12.5
-8.8298512 -19.918348 -26.310478 57.833336
-8.7886286 -17.123877 -26.472736 2
-9.5121222 -16.56072 -26.561369 29.016668
-8.724947 -16.750547 -26.4909 42
-9.6002703 -15.417521 -26.64176 19.055555
-0.49025634 -15.196387 -26.456341 6
0.22716048 -15.472263 -26.433323 18.666668
9.2164841 -15.509534 -26.699823 2
-9.451849 -14.741025 -26.674412 19
-0.2528688 -14.522007 -26.335815 59.299999
0.11492019 -14.506213 -26.553286 76.190475
8.9885502 -14.097512 -26.73064 2
9.0846863 -14.650006 -26.718588 2
8.9341993 -13.513041 -26.745174 2
11.644435 -13.009337 -26.245226 3
-9.112071 -12.695611 -26.204765 19.5
-8.4800148 -12.569715 -26.458439 17.659525
1.5663688 -12.542393 -26.277325 8.833334
8.7969046 -12.494702 -26.770224 1.1111112
11.426101 -12.431022 -26.278517 2.3333333
-8.5834599 -11.512673 -26.556274 18.520834
1.7880306 -11.604363 -26.468824 13.805556
8.6862173 -11.609009 -26.793571 1
10.995181 -11.07664 -26.359465 2
11.152773 -11.62028 -26.326353 2
-8.3162231 -10.509258 -26.620644 19.166666
0.81279093 -10.218133 -26.451117 18.133333
1.247969 -10.1807 -26.445086 35.284184
2.2338016 -10.381989 -26.579151 24.091665
8.5689659 -10.535172 -26.824577 1
10.808198 -10.524444 -26.392714 2
-8.1271772 -9.7838326 -26.669439 18.6875
0.88400728 -9.9984198 -26.020311 44.57143
1.6972067 -9.7874908 -26.776386 14.285714
8.4637232 -9.4770508 -26.858154 1
10.525611 -9.5167065 -26.456249 2
12.737262 -9.1170483 -26.011314 3
-7.241756 -8.269866 -26.573776 8.1625004
8.3851433 -8.6023674 -26.888769 1
10.2334 -8.5016127 -26.52166 2
12.410767 -8.4062176 -26.081331 3
-7.4539618 -7.7557983 -26.50923 26.788095
2.0871873 -7.1334696 -26.816801 11
8.3195133 -7.5327787 -26.931911 1.1875
9.8940821 -7.2784238 -26.603806 2
10.045105 -7.8090324 -26.56776 2
11.936199 -7.3365517 -26.187996 3
12.09775 -7.7194309 -26.14949 3
-7.4175873 -6.47016 -26.42448 23.306667
1.8568976 -6.0688462 -26.462418 2
8.2471466 -6.4872842 -26.978586 2
9.6639071 -6.4286313 -26.663551 2
11.611048 -6.6470237 -26.257486 3
-7.0948038 -5.5250454 -26.461533 24.344444
-6.9643793 -5.0975728 -26.512182 24.242859
1.9178766 -5.6194725 -26.440533 7.273809
2.1743994 -5.1553941 -26.591166 14.448232
3.1652734 -5.0552149 -26.031525 6.9642859
9.4067945 -5.4750814 -26.733757 1.4722222
10.967856 -5.1705275 -26.409803 3
11.193381 -5.6850529 -26.356264 3
-6.4002042 -4.3174701 -26.513542 13.259524
1.9773744 -4.9122324 -26.948849 13.966667
2.4949667 -4.6827455 -26.525984 26.79623
3.1128101 -4.6982107 -26.501862 13.777778
9.1010666 -4.4331403 -26.81356 1
10.696968 -4.5324936 -26.477449 2.75
12.388334 -4.0000687 -26.122446 3
-6.4334559 -3.4705305 -26.540041 19.818838
-5.9589157 -3.7329788 -26.780478 7.9564819
8.7928295 -3.5601106 -26.882248 1
10.230489 -3.4993958 -26.588675 2
11.920154 -3.1496167 -26.241869 3
12.191417 -3.5705462 -26.182205 3
-6.320025 -2.4549603 -26.450359 25.236744
8.422987 -2.5088527 -26.970699 1
9.7703476 -2.5494161 -26.693542 1.6
11.530122 -2.5674038 -26.325096 3
-6.114212 -1.5708504 -26.532003 26.478647
-5.9789886 -1.1136484 -26.068962 25.545456
9.2571459 -1.4839414 -26.81583 1
10.814154 -1.3350446 -26.502064 3
11.100106 -1.8562769 -26.426987 3
12.841883 -1.3249531 -26.041363 5.2857141
-5.8083692 -0.40505415 -26.519823 27.475027
8.7718534 -0.47146791 -26.937962 1.032563
10.469936 -0.58757961 -26.610306 5.0416665
11.921115 -0.091290116 -26.262543 6.1999998
12.302639 -0.63442695 -26.1663 5.1666665
-5.3022451 0.5772233 -26.379354 19.143501
-4.9090471 0.68781477 -26.526848 32.892216
9.6961956 0.52698839 -26.776829 3
10.324756 0.43205118 -26.458344 9.3238096
11.544868 0.16763335 -26.317083 13.944444
-5.369607 1.4006829 -26.463766 32.776634
1.4197289 1.2263545 -26.940437 1
3.755188 1.94415 -26.797989 22.023691
4.2824931 1.763096 -26.532822 18.794811
8.9389601 1.6478506 -26.94821 3
9.2727871 1.2108607 -26.88051 3
10.54525 1.5710928 -26.332973 15.803154
11.820323 1.1283886 -26.0436 11.666667
-5.1022139 2.5018964 -26.378973 34.953354
3.8073645 2.4689941 -26.654654 17.613985
4.185472 2.4391792 -26.285492 16.918859
9.8917046 2.7679749 -26.768089 2
10.602631 2.5089226 -26.408728 8.8513613
-4.8286324 3.5712373 -26.386827 38.130226
4.1881809 3.301228 -26.512337 7.0246105
-4.4701052 4.6100097 -26.535879 30.648218
-3.8606777 4.9160271 -26.54808 19.23373
-4.3613386 5.3964667 -26.492426 40.671429
-3.8132813 5.2646875 -26.35676 17.754166
-4.1086879 6.4261127 -26.417685 33.832554
-3.6479714 6.7066579 -26.509161 18.939116
-3.4245462 7.6648927 -26.511389 20.381113
-0.31368113 7.7716722 -26.216553 7.1913266
0.65480393 7.5110054 -26.125132 7.5
1.0654339 7.4871144 -26.112608 1
-3.4091041 8.4468307 -26.364285 22.200001
0.52409852 8.8166428 -26.266003 11.999999
1.2386949 8.3296824 -26.009499 8.3999996
11.12676 8.729353 -26.624939 5
-3.3650672 9.3785305 -26.475063 22.924999
-2.7907722 9.5049372 -26.484552 13.064648
-0.085766613 9.2130041 -26.545574 7
0.47090551 9.4309978 -26.640137 8.7438164
1.1152308 9.5732985 -26.522949 6.875
10.853077 9.3129454 -26.708189 5
-3.0785294 10.931125 -26.241653 22
1.4067733 10.536839 -26.70573 5.875
12.747023 10.104363 -26.055527 7
13.177657 10.897805 -26.061192 14.111111
-3.0449433 11.19889 -26.423107 18.166666
-2.9044955 11.543627 -26.502672 21.657145
-0.2553741 11.938588 -26.825018 38.5
1.8255361 11.455482 -26.387665 94.161903
2.5108218 11.300522 -26.542503 101.07134
3.0973215 11.159328 -26.507523 88.645836
12.927831 11.649781 -26.146616 15
-2.7696924 12.1486 -26.557785 16.75
-1.1282976 12.147459 -26.327003 18.875
-0.73023784 12.056273 -26.630365 27.334127
12.923871 12.303276 -26.192677 7.8000002
-2.3558891 18.635431 -26.414394 24.780001
-3.2909307 19.919676 -26.443596 39.491669
-2.8509822 19.812088 -26.449629 37.5
2.364727 19.062349 -26.477789 45.083332
-5.018487 20.321989 -26.050467 31.333334
-4.5663438 20.226797 -26.535376 41.100002
-3.851367 20.054258 -26.318869 36.566666
7.5654135 26.393002 -26.358862 21
0.4733721 -30.28175 -25.468273 34.4375
-2.2592299 -29.655785 -25.54319 17.166666
-1.8389978 -29.916348 -25.521801 6
15.809958 -28.327377 -25.391005 28
16.188643 -28.202236 -25.400925 13.5
16.098988 -27.509232 -25.439217 8
-7.266057 -22.653633 -25.204401 11
-6.4769921 -22.833578 -25.157736 23.5
-5.4318256 -22.776604 -25.40745 29.333334
-4.4777575 -22.251837 -25.632 81.68
-3.5429821 -22.480337 -25.420874 78.360001
-2.5738389 -22.484259 -25.609985 61.75
-1.9366419 -22.150753 -25.885298 24
-7.3824439 -21.549263 -25.304327 71.888885
-5.4128571 -21.982937 -25.190525 44.400002
-4.4046178 -21.104073 -25.230324 7.125
-3.9780071 -21.180311 -25.210438 9
-2.3142331 -21.792587 -25.115463 41.666668
-1.9742296 -21.886765 -25.100426 25
-7.3119469 -20.061918 -25.430231 4
-5.028914 -20.963871 -25.262674 4
14.071033 -20.249552 -25.83696 5
-7.5128889 -19.170353 -25.517595 84.009995
16.938412 -19.227812 -25.050386 13
17.16857 -19.724369 -25.004269 14
-9.2971458 -18.723087 -25.647312 73.166664
-8.6383333 -18.883522 -25.59819 88.011108
16.751396 -18.476273 -25.120674 9.083333
-9.7156534 -17.236534 -25.80755 12
-8.6285315 -17.259933 -25.033199 11.333334
16.759121 -17.620457 -25.201698 11
-10.217249 -16.475426 -25.909254 29.833332
-9.3658752 -16.555521 -25.592678 31.641665
-8.8752232 -16.632475 -25.469082 30
-10.219616 -15.802073 -25.973703 11
-9.5948944 -15.502716 -25.289877 6
-0.73815089 -15.361313 -25.320042 7.833333
-0.33094916 -14.414594 -25.40976 56.5
0.047504365 -14.511912 -25.663572 7
-10.29699 -12.135174 -25.451492 16.333332
-9.2191162 -12.5933 -25.640253 19.166668
-8.500164 -12.427997 -25.537262 17.916666
-7.851819 -12.51466 -25.034071 13
1.7121677 -12.343475 -25.825968 18.904762
14.114674 -12.075184 -25.725252 3
-9.2793522 -11.804159 -25.743994 26.939999
-8.5560436 -11.482931 -25.212231 5.0857143
1.6523911 -11.957904 -25.857391 4
2.0253088 -11.738075 -25.875137 13
13.794764 -11.396856 -25.790272 3
17.111471 -11.880584 -25.03961 9
-9.0501719 -10.77232 -25.33604 9.333333
-8.9395428 -10.640528 -25.615196 13.4375
0.70320857 -10.188284 -25.456142 16.410715
1.5177553 -10.373212 -25.700611 27.575001
2.3328443 -10.411711 -25.985077 19.866667
13.305815 -10.427125 -25.883425 3
-7.4715748 -9.3652468 -25.056185 19.4
0.82468396 -9.9837694 -25.643545 65.375
12.844518 -9.3828936 -25.985115 3
13.032331 -9.7495356 -25.949553 3
15.49946 -9.1605949 -25.409206 3
-8.114089 -8.1411476 -25.502922 23.625
-7.4221616 -8.3450918 -25.45566 4.3333335
14.869805 -8.0071335 -25.566153 3
15.251187 -8.7065125 -25.470907 3
-10.194179 -7.0903673 -25.00342 32
-8.1161451 -7.4592462 -25.529165 18.636736
-7.5614371 -7.6969671 -25.45392 17.661112
14.499128 -7.3592482 -25.654907 3
-9.5319166 -6.9221125 -25.281624 16.125
-8.1862974 -6.5193124 -25.580553 16.035715
-7.78475 -6.535553 -25.447075 10.796296
1.6620935 -6.0040288 -25.364489 8
16.854179 -6.3429737 -25.127304 4
17.092081 -6.6660643 -25.069281 4
-7.597074 -5.3228979 -25.539143 8.984127
-6.8030224 -5.5790572 -25.052885 14.153847
1.8155192 -5.5653801 -25.475258 11.384027
13.479114 -5.6280198 -25.893869 3
15.854084 -5.0687547 -25.358793 4
16.259813 -5.6074524 -25.261703 4
-7.4033418 -4.91152 -25.172474 5.666667
-6.5138817 -4.322237 -25.038424 23.888887
1.9045137 -4.9334149 -25.273643 7.0625
2.4881785 -4.7590628 -25.440718 19.75469
15.487821 -4.5623164 -25.449354 3.3333333
-9.0421448 -3.0838203 -25.461103 4
-8.4724112 -3.2762375 -25.459864 21
-7.4363494 -3.0987523 -25.425686 21.207142
-6.5127273 -3.5142787 -25.547937 16.244026
12.257124 -3.157774 -25.578682 3.5
14.765699 -3.6222649 -25.619278 3
-10.175217 -2.6993461 -25.254597 26.958334
-9.4648523 -2.7774379 -25.413996 17
-8.5379162 -2.8661611 -25.186911 4.0555558
-7.1641755 -2.9661806 -25.688881 18.5
-6.7139163 -2.4118795 -25.318699 13.400578
11.98997 -2.4351501 -25.065578 47.888889
12.207679 -2.5308478 -25.584278 20.688776
13.638576 -2.2714186 -25.867374 4
-6.6022139 -1.5827502 -25.413918 15.21337
-5.8736515 -1.4305435 -25.019176 13.7
12.229971 -1.6063824 -25.432348 41.975555
13.20821 -1.7673967 -25.960316 6
-6.4076624 -0.4208062 -25.500633 22.077713
-5.7613716 -0.46672431 -25.029928 5.9114223
12.506974 -0.60330629 -25.519159 32.048145
14.887433 -0.14043081 -25.61204 5
15.288765 -0.54432845 -25.51981 5
-6.219656 0.17210038 -25.459192 10.364615
-5.2042718 0.65444613 -25.692392 13.777115
-4.9711623 0.89963281 -25.915926 19
12.540593 0.61153787 -25.478086 45.661114
13.042148 0.64834553 -25.429169 5
14.502571 0.22972445 -25.69755 5
-7.2818928 1.7555885 -25.334087 16.25
-6.9460902 1.8946028 -25.705084 14
-5.8163414 1.4822859 -25.583012 23.55781
10.627055 1.5452484 -25.491596 29.193609
11.356046 1.265461 -25.58293 22.569445
12.762785 1.1061683 -25.309504 44.916668
-8.5538206 2.871067 -25.2055 24.822222
-7.3117628 2.2371902 -25.174004 3.4375
-5.6156216 2.6879127 -25.728113 17.73889
4.299571 2.3201108 -25.917915 5.333333
10.744038 2.1660442 -25.449074 17.1
13.943681 2.8924613 -25.640942 5.8571429
14.107135 2.7305751 -25.600355 5
-5.4584694 3.7384694 -25.678274 12.125
-4.998457 3.1670852 -25.973705 32
4.1218815 3.418278 -25.992811 7
13.58916 3.2290022 -25.726341 5.6666665
-5.2152643 4.5197496 -25.755005 7.5349264
-4.597734 4.8786488 -25.880899 18.395834
-3.9771593 4.8421082 -25.998634 15
-4.3000565 6.1303787 -25.902832 22.545454
-3.7267036 6.3061705 -25.980623 9.25
-4.3568263 7.7285933 -25.81078 15
-4.2021904 8.4308929 -25.782928 17
-3.3478234 8.345006 -25.883106 11
1.3691409 8.3582125 -25.999048 5
-3.1615205 9.3218346 -25.81599 17.950001
-2.8711627 9.6346483 -25.809732 6.0476189
-3.8066146 10.112101 -25.690163 24
12.728048 10.222097 -25.518982 3.25
13.294318 10.35723 -25.720715 8.75
-3.2352595 11.58045 -25.597523 21.475
1.8450218 11.42226 -25.631035 58.25
2.5973413 11.252118 -25.811457 105.99721
3.0103858 11.149769 -25.571577 60
13.404873 11.791247 -25.497299 9.333333
-7.5757275 12.879687 -25.058775 9.5333328
-6.5285716 12.616613 -25.204983 20.25
-5.95576 12.487184 -25.279772 18
-3.1136425 12.120361 -25.552032 19
-2.76054 12.215074 -25.981403 22.166668
-1.1953913 12.140816 -25.619364 23.75
13.877696 12.390183 -25.455856 6
16.419682 12.559494 -25.074116 8.5
13.587105 13.227648 -25.537132 4.5
14.395508 13.585388 -25.435104 4.6666665
15.000108 13.634623 -25.347872 3
16.659775 13.580082 -25.093603 13.666667
16.895605 14.562842 -25.108862 16.666666
17.012745 15.121907 -25.11882 17
17.533998 17.325129 -25.141891 23
-2.4943204 18.65473 -25.524353 28.5
-3.3710475 19.912899 -25.416481 37.849998
2.182322 19.11236 -25.407623 29.666666
-4.4934468 20.184568 -25.366201 37.311111
-3.9564121 20.056002 -25.391998 39.799999
-0.19881222 -30.053207 -24.407143 34.666668
0.55467975 -30.248844 -24.38232 34.875
2.79351 -30.821728 -24.319088 34
16.340588 -30.570002 -24.039986 14.666667
-2.3969939 -29.482437 -24.489965 20.5
16.461166 -29.491816 -24.132027 22.799999
16.649343 -28.494501 -24.217133 29.666666
-8.727128 -27.732336 -24.828394 10.555555
16.864462 -27.545937 -24.298569 28
16.990456 -26.943966 -24.3507 27
17.121401 -26.360945 -24.40151 30.75
17.295731 -25.604702 -24.467896 27
17.528856 -24.538048 -24.562654 26
17.770739 -23.459528 -24.659735 30.111109
-5.4880228 -22.162632 -24.343443 49.400002
-4.4538312 -22.268579 -24.304991 72.905556
17.9538 -22.644894 -24.733898 33
18.035362 -22.289694 -24.766594 32.666668
-6.4759254 -21.763702 -24.418167 98.724998
-5.796957 -21.974344 -24.373949 28
-4.3942409 -21.112844 -24.439499 5
-3.442544 -21.20977 -24.405878 8.833333
-2.4953644 -21.525656 -24.349579 29.353333
17.624237 -21.109045 -24.875793 7
18.112061 -21.974798 -24.795757 24
-6.776567 -20.26227 -24.606203 55.333332
17.440887 -20.499809 -24.932274 14.5
18.35998 -20.053713 -24.009382 23.5
-7.3054018 -19.417828 -24.724232 36.625
18.498226 -19.462856 -24.0784 25.625
-8.106904 -18.202816 -24.898493 9.5
-7.8277521 -18.68922 -24.82966 26.333334
-4.1117611 -18.004963 -24.113087 11
-3.8742311 -18.393095 -24.049841 10.333334
18.712317 -18.531157 -24.187754 19.583334
-8.2981758 -17.819706 -24.952248 9.666667
-4.5013356 -17.443998 -24.205606 11
18.912716 -17.655268 -24.291275 18.583334
-5.2115736 -16.199787 -24.409027 9.6999998
-4.9495821 -16.7013 -24.327286 11
18.44561 -16.073036 -24.494625 5
19.075064 -16.962008 -24.373562 18
-5.7006125 -15.469768 -24.530508 10
-1.0575387 -15.87454 -24.390085 3
-0.91061199 -15.493429 -24.446009 12.666667
18.341722 -15.546289 -24.561541 14
-6.3816223 -14.599445 -24.678291 12.2
-3.4416676 -14.324875 -24.104286 14.599999
-0.50924468 -14.495516 -24.34853 39.5
17.806465 -14.469452 -24.704418 14.25
18.046053 -14.923818 -24.643845 16
-7.3066964 -13.341031 -24.893082 12.095238
-6.854485 -13.991133 -24.782438 13
-4.2471018 -13.248412 -24.312748 14.619047
-3.8904898 -13.708853 -24.223595 15
17.409855 -13.477713 -24.679049 13.2
-7.6536751 -12.835823 -24.979488 12.857142
-5.1344309 -12.161385 -24.522697 19.4375
-4.6918869 -12.71651 -24.415695 17.75
-2.7050469 -12.006779 -24.054642 16.625
17.320866 -12.71755 -24.490498 14.457143
18.497833 -12.489861 -24.148977 17
-6.0796061 -11.138344 -24.719917 16
-5.661901 -11.611926 -24.628992 20.074074
-3.3982947 -11.327194 -24.204933 15.75
-2.8996172 -11.842279 -24.091312 18.5
18.89563 -11.579239 -24.265875 16.199999
-6.5243683 -10.602592 -24.822172 21.05238
-4.3657265 -10.368869 -24.412437 21.428572
-3.9417498 -10.805275 -24.31872 21.333334
-2.3730719 -10.230786 -24.031765 21
0.6351043 -10.1341 -24.572372 20.404545
18.858009 -10.414261 -24.439356 5
19.049929 -10.938539 -24.35358 16
-7.064342 -9.9110317 -24.953402 18
-5.3925323 -9.3056564 -24.635767 23.111113
-4.9143 -9.8116055 -24.53054 22
-3.372009 -9.359807 -24.242434 20.863638
-2.7099965 -9.9403772 -24.10331 21.125
0.55963212 -9.9500952 -24.200247 37.46875
18.48127 -9.5029898 -24.590307 4.6666665
-6.2360091 -8.3297815 -24.834949 22
-5.8557906 -8.7762642 -24.744576 22
-4.4089866 -8.3624821 -24.472576 28.178032
-3.9077332 -8.8711777 -24.356752 25.4
-2.6046596 -8.4948254 -24.110882 39.032726
17.841587 -8.1507034 -24.81773 5.25
18.166561 -8.6928911 -24.723539 8.458333
-6.7081947 -7.7407627 -24.952242 21.666666
-5.3280301 -7.3989749 -24.683313 26.238638
-4.5369272 -7.4595094 -24.525494 33.713638
-3.5786381 -7.6495886 -24.32468 36.741989
-2.5353167 -7.2863674 -24.13756 23.784187
-1.9360912 -7.7602396 -24.00341 21.636364
17.659559 -7.5002756 -24.921482 4
-6.2958131 -6.298069 -24.909332 27.111113
-5.6229029 -6.6920447 -24.762383 31.457691
-4.5271106 -6.7132225 -24.545713 40.435898
-3.5348456 -6.4395733 -24.358322 22.452379
-2.54002 -6.5004764 -24.169687 25.213869
-1.8098605 -6.3730202 -24.030296 31.985714
-5.674623 -5.4732203 -24.809568 44.835785
-4.5691371 -5.4723215 -24.581213 23.737778
-3.4286942 -5.381259 -24.363293 34.304314
-2.4326656 -5.522222 -24.1765 43.861435
-1.7376301 -5.2807355 -24.054199 24.345238
1.64949 -5.6694975 -24.642958 12.46461
-6.1720238 -4.8552122 -24.932701 46.15625
-5.472331 -4.4543486 -24.793779 23.369444
-4.4224734 -4.4271436 -24.589258 34.335346
-3.499881 -4.4833102 -24.407387 49.346046
-2.7203376 -4.5761447 -24.258629 28.925926
1.8186351 -4.7640042 -24.529737 7.9984131
2.4065313 -4.5183759 -24.773027 15.373028
-16.56266 -3.2331986 -24.265762 58.799999
-15.117495 -3.0887256 -24.449978 26.5
-9.261035 -3.0121484 -24.698196 12.5
-6.0363426 -3.7047634 -24.938297 24
-5.4398465 -3.5828862 -24.820353 31.118732
-4.3642874 -3.3892243 -24.622786 43.567371
-3.5869019 -3.7800109 -24.457182 28.43894
12.171833 -3.0498142 -24.941605 16
-16.052334 -2.7246065 -24.421492 36
-15.863939 -2.1342645 -24.556446 44.714287
-14.29115 -2.449507 -24.115561 9.5555563
-12.109388 -2.4118488 -24.671017 17.25
-11.466359 -2.5729163 -24.71744 26.277779
-10.515578 -2.8011792 -24.745598 29.333332
-9.9604254 -2.944953 -24.618301 24
-5.4485669 -2.6229982 -24.864321 46.040527
-4.6230359 -2.5565662 -24.703011 31.805258
12.044524 -2.0629368 -24.691078 42
-14.574601 -1.7068746 -24.362003 16.5
-5.3980079 -1.680016 -24.888968 36.976982
12.147266 -1.4831603 -24.513601 36.066669
13.440202 -1.4399835 -24.109024 2
-5.5763378 -0.97978449 -24.951595 28.384615
12.449329 -0.32901832 -24.476236 40.851852
12.51051 0.31936857 -24.422827 36.957672
10.474755 1.5869027 -24.40196 25.397383
11.221329 1.3258219 -24.569496 13.166667
-13.503263 2.7010827 -24.112955 10
10.481531 2.1411986 -24.470732 21.053572
-11.853652 3.8641858 -24.146965 2.5
17.681797 3.9890506 -24.420166 7.75
18.499239 3.8168328 -24.461845 7.5999999
19.500345 3.6085522 -24.413034 8.666667
-14.619801 4.8077116 -24.131058 19.666666
-12.719703 4.7784986 -24.022577 12.222221
14.724831 4.512116 -24.356489 12.28889
15.510322 4.4345269 -24.371826 5.7777781
16.522366 4.2348495 -24.644117 10.666667
17.255894 4.0780993 -24.500463 10.625
-14.31951 5.9165473 -24.303545 23
-13.26754 5.8106909 -24.510445 2
-12.662815 5.5940852 -24.104336 3
-14.091458 6.7099705 -24.416006 16.714285
-13.504117 7.2473998 -24.155064 10
-12.96079 7.2234716 -24.13599 7
16.274065 12.636018 -24.39679 27.111113
16.501593 13.624385 -24.388725 26.583334
16.723745 14.589942 -24.377148 22.666666
14.368187 15.115477 -24.080788 24.299999
16.901627 15.371212 -24.365921 14
17.16609 16.401402 -24.34329 12
4.7246122 17.99844 -24.695061 30
17.376862 17.361547 -24.325333 17.666666
-2.6850255 18.647022 -24.881866 32.75
-3.4401746 19.91338 -24.725887 39.125
-5.3590364 20.375805 -24.598368 34.125
-4.4992394 20.170586 -24.660114 38.266666
16.181978 -32.330551 -23.890472 10
2.8674877 -31.711817 -23.099215 13.5
3.4988492 -31.435713 -23.127817 16
4.402482 -31.123957 -23.160414 28.266668
5.5751572 -31.465776 -23.118019 33
6.4616079 -31.786787 -23.080097 37
-0.28202641 -30.433342 -23.277969 27
0.26042151 -30.303635 -23.286594 50.625
16.469988 -28.333649 -23.062574 30.333334
17.434193 -28.508833 -23.018093 9
16.706938 -27.756393 -23.124949 20.25
16.93392 -26.338802 -23.287371 25
17.153631 -26.171608 -23.301983 16.5
17.398834 -25.423008 -23.385288 8
17.355591 -24.472559 -23.499565 22.333332
17.673424 -23.34021 -23.627775 24.833334
18.045883 -22.554987 -23.713799 7
17.938047 -21.913195 -23.793446 21
18.205692 -21.509277 -23.836477 14.066668
-2.4622073 -20.591797 -23.692535 7.75
18.267893 -20.528067 -23.759226 15.066668
-3.170856 -19.288479 -23.901699 8.916666
-2.7200975 -19.794607 -23.817671 38.625
18.301928 -19.409807 -23.133942 43.75
19.908575 -19.108725 -23.10877 8
20.336273 -19.2285 -23.07242 9
-3.5165706 -18.854481 -23.973534 12
18.716089 -18.485168 -23.253008 15
18.848284 -17.211607 -23.435921 27.111113
19.063343 -17.71944 -23.351355 8
-2.0162628 -16.086897 -23.760239 12
-1.6156791 -16.506016 -23.677628 7.3333335
19.318783 -16.562256 -23.511396 7
-2.4671509 -15.557941 -23.863907 13.916667
-1.1459253 -15.787726 -23.807884 9.333334
19.239243 -15.507683 -23.670757 25
-2.9781244 -14.94464 -23.983929 15.428572
-0.52713799 -14.380611 -23.513992 13
19.396679 -14.495445 -23.383888 25.25
-1.2417412 -13.546554 -23.705658 14.857142
-0.8354429 -13.94553 -23.613844 11.875
19.70059 -13.611934 -23.358454 15
-2.2514677 -12.496817 -23.944609 16.285713
-1.8159106 -12.969744 -23.837526 13.428572
-0.18358809 -12.100623 -23.546463 9.25
0.033757031 -12.249533 -23.505913 5
18.618362 -12.31585 -23.370901 27
19.862032 -12.486744 -23.251358 13.125
20.291321 -12.252467 -23.259163 29.666666
-1.2822528 -11.183714 -23.789104 20.25
-0.63364983 -11.713801 -23.649862 22
20.305662 -11.32887 -23.41239 32
-2.1084051 -10.4574 -23.975143 21.111111
-1.6727903 -10.839687 -23.87793 17.666668
-0.27766681 -10.23185 -23.620409 36.15556
0.35548854 -10.229652 -23.616745 28.666666
20.24 -10.62972 -23.533363 25.6
23.562771 -10.466599 -23.309387 11.5
-1.6588948 -9.2376232 -23.909863 36.9263
-0.81808305 -9.8526764 -23.733662 38.162498
0.44915304 -9.4480209 -23.574764 22.08853
20.641329 -9.4729795 -23.693691 20.733334
22.845592 -9.2761135 -23.557795 13.666666
23.033489 -9.8039465 -23.457714 15
-1.424036 -8.1260939 -23.894096 21.579544
-0.50458843 -8.710743 -23.708735 14.795454
0.64840233 -8.2349358 -23.510448 13.136364
1.0321147 -8.4052086 -23.439541 2
22.685051 -8.6463881 -23.671883 13.8
-1.4091883 -7.336072 -23.919767 21.950001
-0.57776725 -7.5841155 -23.756601 20.757692
0.34160972 -7.4186716 -23.57885 28.318182
1.1770638 -7.5017071 -23.441267 3.3333333
22.666513 -7.8069458 -23.808243 11.833333
23.05335 -7.5622835 -23.817337 7
-1.3172289 -6.5540423 -23.929365 34.004517
-0.35429189 -6.4585609 -23.744843 27.651348
0.36936221 -6.4341455 -23.602407 22.311356
1.1991234 -6.716033 -23.455294 7.8571429
-1.2882693 -5.5585909 -23.960398 23.28125
-0.76545405 -5.8618298 -23.848845 22.8125
1.5441703 -5.7092762 -23.933907 7.5791669
-15.882458 -3.23311 -23.724981 12
-16.037266 -2.237792 -23.907627 33.166664
-15.968702 -2.8670187 -23.789158 21
-14.453277 -2.774334 -23.45817 11
-13.145849 -2.188127 -23.819386 13
-12.239783 -2.4067717 -23.932823 10
-11.911934 -2.4853935 -23.973249 15
-14.422093 -1.5342906 -23.72686 21.208334
-13.700108 -1.6004549 -23.664347 11
13.706018 -1.3072699 -23.586864 5
-14.127748 -0.29562616 -23.479239 10.125
-13.76899 -0.69708645 -23.479586 11.875
12.242333 -0.97835612 -23.971626 14
10.802834 1.4312636 -23.903427 17.333332
11.159142 1.3564585 -23.78619 21
-13.566912 2.8922744 -23.599043 12.833333
-12.499758 2.5123844 -23.819595 11.416667
-14.024618 3.9225626 -23.610382 15.6
17.817291 3.9478595 -23.433281 7.3333335
18.508913 3.8028622 -23.48646 4.4166665
19.374992 3.6081529 -23.395611 6
-14.286301 4.4126077 -23.742022 11.354167
14.479964 4.5805745 -23.365396 21.827379
15.515086 4.4238486 -23.568932 5.9166665
16.415415 4.2376723 -23.550842 7.625
-14.166935 5.626895 -23.743732 9.75
14.389594 5.3343339 -23.521521 27.964287
-14.213581 6.482667 -23.797934 16.571428
14.618962 6.3214512 -23.533316 23.342857
-14.06452 7.1659532 -23.877964 12
-13.703508 7.1459923 -23.960747 15.333333
15.921919 12.445847 -23.054203 24.5
16.080118 12.673865 -23.489309 27.916666
16.267086 13.400423 -23.55209 28.299999
16.585875 14.659248 -23.640642 29.666666
13.984193 15.212386 -23.439529 26.5
14.257874 15.163609 -23.382349 26
16.725834 15.312224 -23.613813 15.166667
17.120693 16.855778 -23.531677 5
17.232674 17.574492 -23.504618 21
22.335443 -34.007614 -22.248257 13
-3.2945583 -33.599331 -22.954794 49
-2.8471198 -33.718243 -22.933281 51.5
-0.58737552 -33.243286 -22.954748 14
17.795195 -33.074104 -22.470209 11
20.742231 -33.679287 -22.325306 12
21.008699 -33.72353 -22.31362 12
2.6285253 -32.956108 -22.955925 9
15.72307 -32.327854 -22.611801 10
2.4396439 -31.200512 -22.024248 20.375
-0.44624379 -30.301334 -22.191446 20.416666
0.30053043 -30.339516 -22.177174 38.333332
15.912616 -30.847126 -22.780716 25
-2.9029574 -29.779676 -22.302181 8
16.24474 -29.325199 -22.951328 28
22.976357 -29.751539 -22.742054 11
16.338951 -28.932858 -22.995121 28
16.694214 -27.232426 -22.038113 12
16.784166 -26.270445 -22.177818 22.444445
17.336197 -26.152826 -22.172033 11.5
17.196112 -25.824114 -22.226967 11
16.995159 -24.8999 -22.373245 21
17.104828 -24.449081 -22.435772 34.166668
17.50758 -23.361883 -22.580564 25.75
17.756439 -22.563873 -22.688688 9
17.807833 -21.692118 -22.816177 29.5
18.146948 -21.18944 -22.876415 9
24.579237 -21.22015 -22.592342 12
17.904802 -20.286507 -22.041752 21.5
18.297781 -20.921923 -22.909645 9
17.963617 -19.983269 -22.091345 26
18.079887 -19.534147 -22.162664 25.666666
21.806162 -19.313831 -22.995667 9
18.606506 -18.573296 -22.295647 13.375
19.026672 -18.381201 -22.300688 8
18.663015 -17.493996 -22.479887 14.666667
19.089281 -17.985743 -22.365238 8
18.814186 -16.947151 -22.564415 16
19.124226 -16.454807 -22.627937 8
18.977451 -15.021908 -22.005199 32
19.050432 -15.554192 -22.78817 21.5
19.320923 -14.432044 -22.588457 26.933332
19.560204 -13.517222 -22.23844 10
21.702627 -13.034756 -22.111107 11
22.211098 -13.124887 -22.041451 11.5
19.62911 -12.580939 -22.410095 20
20.126228 -12.276289 -22.416691 32.75
21.442377 -12.970343 -22.150139 11
20.285873 -11.39099 -22.565882 24.5
24.706347 -11.004446 -22.165808 12
25.264399 -11.123087 -22.084118 13
19.982706 -10.685501 -22.456385 39.333332
20.136055 -10.298687 -22.783619 33.700001
23.942314 -10.836657 -22.278524 12
24.334478 -10.927002 -22.219921 12
20.435791 -9.5500584 -22.378391 29
26.404718 -9.9649668 -22.165092 13
17.754164 3.9204907 -22.466564 7
18.640764 3.7309303 -22.544601 6.8333335
19.288235 3.5813036 -22.358963 4.5
15.592696 4.3869429 -22.820505 7.5555553
16.479246 4.1950116 -22.541573 8
17.168684 4.0450325 -22.642042 8.5
20.221272 4.6545534 -22.98325 4
16.189243 13.64463 -22.979038 27
16.377075 14.481743 -22.92132 29.333334
16.544439 15.296682 -22.866087 24.5
16.905935 16.463097 -22.754398 4
17.054964 17.585609 -22.686251 17.333332
5.7773271 -35.028099 -21.415724 10
6.2273154 -35.104229 -21.401091 21
6.7449875 -34.525887 -21.485929 10
-3.267679 -33.641975 -21.720074 36.5
-2.8487353 -33.748646 -21.698343 40
6.0370436 -32.076279 -21.863209 9
14.272382 -32.765549 -21.311024 36.5
15.232815 -32.372375 -21.330584 24.5
2.9727051 -31.357714 -21.995453 20
3.7502735 -31.547377 -21.960026 18.625
4.6398869 -31.44697 -21.968409 35.055557
5.3174219 -31.931982 -21.889893 9
15.433331 -31.532825 -21.44799 27.5
-0.48923993 -30.390472 -21.059528 31.066666
0.13720804 -30.324009 -21.065372 46
15.692647 -30.436592 -21.601282 29.333334
15.907532 -29.497553 -21.732752 37.666668
23.141123 -29.563356 -21.417068 18
16.119793 -28.609653 -21.856585 36.833336
23.508116 -28.163816 -21.609581 17
16.647511 -27.866402 -21.945423 21.583334
23.348515 -27.366264 -21.734928 16
16.346254 -26.396179 -21.048519 23.833332
23.450865 -26.996487 -21.78545 16
16.656174 -25.394547 -21.21014 29.75
16.885326 -24.459347 -21.364029 30.333332
17.122385 -23.459511 -21.528234 29.333334
17.436832 -22.383213 -21.700331 18.5
17.587542 -21.649887 -21.82102 24.166666
18.260986 -21.250313 -21.848261 9
17.6744 -20.327156 -21.062256 35.5
17.899086 -19.39921 -21.231903 37.333332
21.927246 -19.220493 -21.955341 9
18.136131 -18.443449 -21.404408 36
18.350494 -17.548334 -21.564686 34.8125
18.797384 -16.589674 -21.713705 15
19.231203 -16.510061 -21.688168 11
18.846125 -15.356991 -21.729254 34.549999
18.904745 -14.549545 -21.225779 44.166668
19.198231 -13.362663 -21.445667 43.549999
22.718058 -13.243108 -21.648607 12
23.17308 -13.32651 -21.903597 12
19.694262 -12.288994 -21.609026 41.486111
29.791315 -12.254283 -21.389965 17
31.541134 -12.523834 -21.150772 18.5
32.486839 -12.669577 -21.021332 19
19.579884 -11.150986 -21.026615 16.6
20.09338 -11.46741 -21.727318 32.25
24.74789 -11.020432 -21.175962 25
25.485559 -11.170878 -21.383413 12.666667
26.45462 -11.341358 -21.915934 13.5
27.58943 -11.618158 -21.743143 14
28.300137 -11.766636 -21.639277 15
35.107883 -11.103931 -21.002457 21
19.676479 -10.602976 -21.49229 33.995239
23.813669 -10.82031 -21.346386 24
24.335545 -10.923728 -21.252865 25
34.782543 -10.667043 -21.113462 21
35.062157 -10.893879 -21.043495 21
19.925955 -9.7807026 -21.275349 38
20.316629 -9.4226112 -21.286823 19.1
21.221661 -0.60595143 -21.246004 25.5
18.51646 3.7456841 -21.891403 7.833333
19.12343 3.6045365 -21.695013 6.6666665
5.6070371 -32.104614 -20.667639 25.444445
6.1898375 -32.233696 -20.636402 20.75
15.244363 -32.487926 -20.005913 23.333334
2.5555046 -31.306524 -20.853418 24.166666
3.670814 -31.415834 -20.819824 33.583336
4.6045489 -31.571547 -20.779568 42.166668
15.602015 -31.028114 -20.252123 26
-1.0904043 -30.867699 -20.976349 12
-0.98685813 -30.931393 -20.963245 12
15.786301 -30.765583 -20.289471 19.5
15.797908 -29.25489 -20.563423 18.5
15.929102 -28.742279 -20.648849 24
16.041733 -28.20466 -20.739704 23.5
15.976018 -27.718588 -20.831545 23
16.044741 -27.443506 -20.877258 23
16.166071 -26.915611 -20.965513 26
16.762232 -24.419144 -20.288921 25.111113
16.95483 -23.600372 -20.444937 29
17.343285 -23.208178 -20.494616 21.333334
17.098732 -22.126373 -20.740324 27
17.259886 -21.488413 -20.858843 26.777779
17.539583 -20.613327 -20.684092 32.888889
17.740522 -19.576469 -20.227688 40.111111
17.933025 -18.781792 -20.390144 43.5
18.29697 -18.564356 -20.39822 28.833334
17.979727 -17.762541 -20.618874 12
18.073566 -17.385759 -20.693764 35.875
18.335875 -16.533937 -20.855333 40.349998
18.617373 -15.43059 -20.388901 41.6875
18.853249 -14.417451 -20.372604 32.333332
18.874146 -13.468806 -20.598532 33.866665
22.959301 -13.310666 -20.959831 12
34.467182 -13.091078 -20.729511 21
35.602211 -13.335598 -20.561615 22.5
36.80864 -13.363514 -20.423464 23.666666
37.069386 -13.559945 -20.360466 24
19.188089 -12.447316 -20.790613 36.033333
29.416975 -12.139648 -20.298344 15
30.63833 -12.370605 -20.080156 21.666666
35.609299 -12.23252 -20.752546 22
36.482296 -12.394048 -20.627546 23
19.447302 -11.67572 -20.928268 20.799999
24.698502 -11.043521 -20.182266 15
25.568665 -11.203907 -20.516113 14.5
26.429983 -11.321085 -20.880199 23.5
27.666086 -11.640223 -20.643339 14
28.12904 -11.734613 -20.559448 14
35.332924 -11.384465 -20.929298 21
19.653973 -10.501802 -20.32106 28.108334
23.570984 -10.794502 -20.430458 17.5
24.138275 -10.925644 -20.304386 22
19.759438 -9.4798584 -20.546936 23.25
20.246664 -9.3354187 -20.482067 12
20.951191 -0.59925056 -20.533733 45
21.311703 -0.63335729 -20.584438 20.799999
26.163109 0.55675125 -20.139778 11
26.303793 1.7834643 -20.286995 13.5
17.998993 -34.311089 -19.518143 15
14.902761 -33.004425 -19.930328 42
16.61054 -33.92881 -19.666603 15
5.5468888 -32.110691 -19.457531 21.444445
14.660825 -32.909534 -19.960936 34.222225
15.341967 -32.552475 -19.98864 21
2.4607601 -31.292387 -19.688917 15
3.4668782 -31.427881 -19.644022 25
4.4746518 -31.566351 -19.597322 38.25
-1.0839287 -30.241848 -19.964796 11
-0.49989185 -30.199438 -19.968834 38.333332
15.447331 -30.84507 -19.021404 20
15.571766 -29.182644 -19.369446 23.25
15.738072 -28.499096 -19.503408 36.5
17.115803 -28.384209 -19.423172 18.5
18.614882 -28.707584 -19.237076 20
15.932327 -27.932724 -19.609789 36
16.274725 -27.842138 -19.603022 24
16.623968 -26.240812 -19.915833 22.833334
16.53899 -24.350325 -19.221144 35.5
16.770248 -23.475861 -19.408556 41.75
17.201824 -23.194149 -19.431639 22.4
19.306742 -23.038605 -19.244076 14
17.372005 -22.46986 -19.586535 13
19.639277 -22.935173 -19.231846 14.5
17.510483 -21.614494 -19.774708 26.5
17.387327 -20.067522 -19.146681 31
17.502712 -19.691826 -19.230017 42.833332
17.736475 -18.796974 -19.432161 37
18.196115 -18.608879 -19.41695 13.75
18.328762 -17.275295 -19.739769 35
19.353212 -17.068169 -19.642368 11.833333
18.53952 -16.723343 -19.612438 16
19.855526 -16.976761 -19.590565 11
18.512909 -15.542293 -19.222658 22.555555
18.710396 -14.440405 -19.486465 29.3125
19.313406 -14.001192 -19.493343 7
19.260004 -13.495995 -19.636133 8.5555563
21.870201 -13.103991 -19.237852 8
22.403076 -13.123616 -19.128614 8.75
33.988247 -13.012246 -19.478939 18
35.318108 -13.274775 -19.238358 19
19.398756 -12.359889 -19.550106 22.056665
20.793287 -12.86614 -19.50729 7
21.156538 -12.955977 -19.414093 8
29.563457 -12.069902 -19.117382 21.5
31.668179 -12.497128 -19.909061 16.5
32.598137 -12.63492 -19.749832 17
19.571535 -11.475287 -19.220446 5
24.747854 -11.055861 -19.155464 9
25.470123 -11.196728 -19.497807 16.5
26.198648 -11.28067 -19.871429 28.333334
27.598879 -11.655546 -19.54812 18.5
28.543461 -11.853188 -19.341461 20
19.474703 -10.567881 -19.487774 41.212502
23.560539 -10.80395 -19.458361 10.25
24.174101 -10.932405 -19.302328 8
19.752432 -9.6336079 -19.669182 38.599998
20.08795 -9.3326664 -19.667519 15
32.204525 -3.1770811 -19.131916 12
32.107227 -2.676322 -19.240179 32
22.906233 -1.0766931 -19.864346 15.5
23.482651 -1.2443998 -19.661922 19
24.46056 -1.4537359 -19.331734 15.5
28.867943 -0.09737289 -19.327702 9
29.66518 -0.26571757 -19.091736 10.5
25.962278 0.55471206 -19.221775 17
26.377985 0.50844067 -19.422659 13.333333
27.517714 0.22284329 -19.732437 14.333333
28.403002 0.013236761 -19.467209 19
30.6308 0.98798859 -19.035198 23
26.358805 1.7859225 -19.290359 12
28.562334 1.4477116 -19.64632 28
29.549358 1.2227306 -19.354046 25.5
30.207788 1.0822445 -19.160353 22
25.905796 2.0250583 -19.460863 17
14.625221 -32.726948 -18.672766 37.75
15.238434 -32.424747 -18.695652 21
1.7855701 -31.054741 -18.574814 17
2.4317434 -31.182381 -18.531435 17
3.3269942 -31.294338 -18.486912 30.5
4.3200541 -31.543344 -18.403008 33
-0.33654913 -30.24626 -18.810928 44
15.307602 -29.179968 -18.154329 34
15.497371 -28.442999 -18.319567 33
15.717495 -27.883108 -18.437658 36.25
16.090105 -27.785198 -18.427074 21.333334
16.355331 -26.288465 -18.768353 22.9375
16.252914 -24.508415 -18.091642 33.666664
16.53801 -23.550318 -18.319477 35.895832
17.043083 -23.155807 -18.364677 9
17.19099 -22.587891 -18.499491 8.25
17.334894 -21.546707 -18.760303 21.5
17.447735 -20.404907 -18.538834 17.5
20.786699 -20.116924 -18.662468 9
17.342669 -19.533373 -18.283964 35.944443
19.72662 -19.869776 -18.876713 8
20.192585 -19.967896 -18.785423 8
17.693157 -18.66309 -18.481144 25.4375
18.06307 -18.271971 -18.533106 8
18.177608 -17.388273 -18.765594 19
18.457842 -16.559029 -18.62948 11.083333
18.237089 -15.279494 -18.412466 46.222225
21.671204 -15.400629 -18.68428 9
18.471268 -14.407708 -18.624369 43.666668
21.779602 -14.92724 -18.787895 9
18.848423 -13.960107 -18.676466 23.666666
19.115633 -13.301826 -18.809175 11.166667
34.175156 -13.067382 -18.098238 14
36.82864 -13.588656 -18.961903 20
38.745438 -13.717727 -18.661232 40.666668
18.932478 -12.647703 -18.13113 40
19.147144 -12.262847 -18.195038 17.8125
20.662584 -12.83777 -18.59857 7
21.225924 -12.62186 -18.53089 17.805555
30.381847 -12.246832 -18.936811 11
31.301022 -12.453531 -18.732182 12
32.242752 -12.594563 -18.537035 18.5
19.346529 -11.6187 -18.338717 4
24.542915 -11.053623 -18.168718 26.5
25.732792 -11.261512 -18.904512 9
26.025446 -11.238132 -18.849316 14.5
27.472677 -11.638271 -18.457205 10.666667
19.317833 -10.488349 -18.67878 33.916664
22.964796 -10.71737 -18.630474 23
